8.647915124893188477e-01,8.647490739822387695e-01,8.646897673606872559e-01,8.646180033683776855e-01,8.645924329757690430e-01,8.645306825637817383e-01,8.645128011703491211e-01,8.644584417343139648e-01,8.643647432327270508e-01,8.643062114715576172e-01,8.642198443412780762e-01,8.641107082366943359e-01,8.640397191047668457e-01,8.639491796493530273e-01,8.638550043106079102e-01,8.637765049934387207e-01,8.637005686759948730e-01,8.636702299118041992e-01,8.635305762290954590e-01,8.635001778602600098e-01,8.633977174758911133e-01,8.633314967155456543e-01,8.633224368095397949e-01,8.632322549819946289e-01,8.633014559745788574e-01,8.632240891456604004e-01,8.633101582527160645e-01,8.632724285125732422e-01,8.633289933204650879e-01,8.633612394332885742e-01,8.633980751037597656e-01,8.634527921676635742e-01,8.636010885238647461e-01,8.637495636940002441e-01,8.638769388198852539e-01,8.640398979187011719e-01,8.642302751541137695e-01,8.644508123397827148e-01,8.646213412284851074e-01,8.647437095642089844e-01,8.651192188262939453e-01,8.653286695480346680e-01,8.656735420227050781e-01,8.659846782684326172e-01,8.662753701210021973e-01,8.665678501129150391e-01,8.668352961540222168e-01,8.671101927757263184e-01,8.673902153968811035e-01,8.676107525825500488e-01,8.678799271583557129e-01,8.680590987205505371e-01,8.681703805923461914e-01,8.682103157043457031e-01,8.681931495666503906e-01,8.681803941726684570e-01,8.680380582809448242e-01,8.679664731025695801e-01,8.677555918693542480e-01,8.675810098648071289e-01,8.672850131988525391e-01,8.669854402542114258e-01,8.666338920593261719e-01,8.663784265518188477e-01,8.659106492996215820e-01,8.654682636260986328e-01,8.649709820747375488e-01,8.645905852317810059e-01,8.639823794364929199e-01,8.633101582527160645e-01,8.624294400215148926e-01,8.617595434188842773e-01,8.606693744659423828e-01,8.596199154853820801e-01,8.582112193107604980e-01,8.571621775627136230e-01,8.557142615318298340e-01,8.543787002563476562e-01,8.527634143829345703e-01,8.514987230300903320e-01,8.497823476791381836e-01,8.481388688087463379e-01,8.461787104606628418e-01,8.447115421295166016e-01,8.431389927864074707e-01,8.417959809303283691e-01,8.402439355850219727e-01,8.390725255012512207e-01,8.379380702972412109e-01,8.365775346755981445e-01,8.352533578872680664e-01,8.341883420944213867e-01,8.332362771034240723e-01,8.323453664779663086e-01,8.313990235328674316e-01,8.305777907371520996e-01,8.300564885139465332e-01,8.293457031250000000e-01,8.284694552421569824e-01,8.277503252029418945e-01,8.273082375526428223e-01,8.268322348594665527e-01,8.265500068664550781e-01,8.262201547622680664e-01,8.264535069465637207e-01,8.266520500183105469e-01,8.270063996315002441e-01,8.271768689155578613e-01,8.276798129081726074e-01,8.282875418663024902e-01,8.289864063262939453e-01,8.295050859451293945e-01,8.303558826446533203e-01,8.315661549568176270e-01,8.331475853919982910e-01,8.342500925064086914e-01,8.354476690292358398e-01,8.368534445762634277e-01,8.381394743919372559e-01
8.634595274925231934e-01,8.634284734725952148e-01,8.633862137794494629e-01,8.633691072463989258e-01,8.633078932762145996e-01,8.632391095161437988e-01,8.631760478019714355e-01,8.631844520568847656e-01,8.630468845367431641e-01,8.629880547523498535e-01,8.629487156867980957e-01,8.628131747245788574e-01,8.627505302429199219e-01,8.626537322998046875e-01,8.625738024711608887e-01,8.624393939971923828e-01,8.623634576797485352e-01,8.622873425483703613e-01,8.622078299522399902e-01,8.621267676353454590e-01,8.620705604553222656e-01,8.619688749313354492e-01,8.619595170021057129e-01,8.619137406349182129e-01,8.619173765182495117e-01,8.618803024291992188e-01,8.618487119674682617e-01,8.618404865264892578e-01,8.619148731231689453e-01,8.619225621223449707e-01,8.620089888572692871e-01,8.620926737785339355e-01,8.622122406959533691e-01,8.623614311218261719e-01,8.624767065048217773e-01,8.625677824020385742e-01,8.627586364746093750e-01,8.630079627037048340e-01,8.631740212440490723e-01,8.632850050926208496e-01,8.635001778602600098e-01,8.637390136718750000e-01,8.640094995498657227e-01,8.643127083778381348e-01,8.646312952041625977e-01,8.649008274078369141e-01,8.651308417320251465e-01,8.653538823127746582e-01,8.656199574470520020e-01,8.659076690673828125e-01,8.661140203475952148e-01,8.662733435630798340e-01,8.663254976272583008e-01,8.664695620536804199e-01,8.664385676383972168e-01,8.664259910583496094e-01,8.663133978843688965e-01,8.661774396896362305e-01,8.659465909004211426e-01,8.658168911933898926e-01,8.655278086662292480e-01,8.652320504188537598e-01,8.648544549942016602e-01,8.645896911621093750e-01,8.642897605895996094e-01,8.637660145759582520e-01,8.632628917694091797e-01,8.628659844398498535e-01,8.622757196426391602e-01,8.618027567863464355e-01,8.610204458236694336e-01,8.603211641311645508e-01,8.592121601104736328e-01,8.581603765487670898e-01,8.568397164344787598e-01,8.558138608932495117e-01,8.544121384620666504e-01,8.530882000923156738e-01,8.515495657920837402e-01,8.502509593963623047e-01,8.486831784248352051e-01,8.469828367233276367e-01,8.451591730117797852e-01,8.436458706855773926e-01,8.422126173973083496e-01,8.407610654830932617e-01,8.394103050231933594e-01,8.382076621055603027e-01,8.370814919471740723e-01,8.357560634613037109e-01,8.345107436180114746e-01,8.333818316459655762e-01,8.326011300086975098e-01,8.315816521644592285e-01,8.307200074195861816e-01,8.299806714057922363e-01,8.294054865837097168e-01,8.287100195884704590e-01,8.278549909591674805e-01,8.270969986915588379e-01,8.267414569854736328e-01,8.263011574745178223e-01,8.259154558181762695e-01,8.255506157875061035e-01,8.258158564567565918e-01,8.260079622268676758e-01,8.262971043586730957e-01,8.265227079391479492e-01,8.270254135131835938e-01,8.276613950729370117e-01,8.283394575119018555e-01,8.288384675979614258e-01,8.296873569488525391e-01,8.308848142623901367e-01,8.323138356208801270e-01,8.334303498268127441e-01,8.346357345581054688e-01,8.360285758972167969e-01,8.372938036918640137e-01
8.619214296340942383e-01,8.618754744529724121e-01,8.618093132972717285e-01,8.617688417434692383e-01,8.617151975631713867e-01,8.617081046104431152e-01,8.616352081298828125e-01,8.615470528602600098e-01,8.614773154258728027e-01,8.614277839660644531e-01,8.613471984863281250e-01,8.612032532691955566e-01,8.611928820610046387e-01,8.611454367637634277e-01,8.610400557518005371e-01,8.609259128570556641e-01,8.608218431472778320e-01,8.608013391494750977e-01,8.606704473495483398e-01,8.605833053588867188e-01,8.605005145072937012e-01,8.603776693344116211e-01,8.604097366333007812e-01,8.603577017784118652e-01,8.603297472000122070e-01,8.602983951568603516e-01,8.603092432022094727e-01,8.602659106254577637e-01,8.603839278221130371e-01,8.603431582450866699e-01,8.603456020355224609e-01,8.603919148445129395e-01,8.605384230613708496e-01,8.606544733047485352e-01,8.607612252235412598e-01,8.609037995338439941e-01,8.610628843307495117e-01,8.612239360809326172e-01,8.613957762718200684e-01,8.614656329154968262e-01,8.617251515388488770e-01,8.619776368141174316e-01,8.622822761535644531e-01,8.625090718269348145e-01,8.628686666488647461e-01,8.630698323249816895e-01,8.633244037628173828e-01,8.635495901107788086e-01,8.637186884880065918e-01,8.639690279960632324e-01,8.641799688339233398e-01,8.643230795860290527e-01,8.644443750381469727e-01,8.645790219306945801e-01,8.644924163818359375e-01,8.644322752952575684e-01,8.644088506698608398e-01,8.642376661300659180e-01,8.639901876449584961e-01,8.638700842857360840e-01,8.636152744293212891e-01,8.633839488029479980e-01,8.629555702209472656e-01,8.627381920814514160e-01,8.622597455978393555e-01,8.619062900543212891e-01,8.614425063133239746e-01,8.611112236976623535e-01,8.605073690414428711e-01,8.599734902381896973e-01,8.591672182083129883e-01,8.585960865020751953e-01,8.576266765594482422e-01,8.566402196884155273e-01,8.552493453025817871e-01,8.542973399162292480e-01,8.529071807861328125e-01,8.515798449516296387e-01,8.499884009361267090e-01,8.488670587539672852e-01,8.473179936408996582e-01,8.457054495811462402e-01,8.439379930496215820e-01,8.425521254539489746e-01,8.411430120468139648e-01,8.398461341857910156e-01,8.384082317352294922e-01,8.373455405235290527e-01,8.361405134201049805e-01,8.350664973258972168e-01,8.337255716323852539e-01,8.326824903488159180e-01,8.318799138069152832e-01,8.309894204139709473e-01,8.300890922546386719e-01,8.294986486434936523e-01,8.287883400917053223e-01,8.280948996543884277e-01,8.272764682769775391e-01,8.265656232833862305e-01,8.261854648590087891e-01,8.257747292518615723e-01,8.254576921463012695e-01,8.251380920410156250e-01,8.252755999565124512e-01,8.253786563873291016e-01,8.257644176483154297e-01,8.258880972862243652e-01,8.263881206512451172e-01,8.270573616027832031e-01,8.276895284652709961e-01,8.281192779541015625e-01,8.290458321571350098e-01,8.302560448646545410e-01,8.316117525100708008e-01,8.326116204261779785e-01,8.337863683700561523e-01,8.351671695709228516e-01,8.363760113716125488e-01
8.604571819305419922e-01,8.603832125663757324e-01,8.604094982147216797e-01,8.604374527931213379e-01,8.604084253311157227e-01,8.602862358093261719e-01,8.602136969566345215e-01,8.601695895195007324e-01,8.600452542304992676e-01,8.600324988365173340e-01,8.599856495857238770e-01,8.598869442939758301e-01,8.597747087478637695e-01,8.596380949020385742e-01,8.595173954963684082e-01,8.594353199005126953e-01,8.593769669532775879e-01,8.592647910118103027e-01,8.592224717140197754e-01,8.590641021728515625e-01,8.590027689933776855e-01,8.589317202568054199e-01,8.588683009147644043e-01,8.588364720344543457e-01,8.588100075721740723e-01,8.587762713432312012e-01,8.587535619735717773e-01,8.586987257003784180e-01,8.587500452995300293e-01,8.587855100631713867e-01,8.588683009147644043e-01,8.588606715202331543e-01,8.590119481086730957e-01,8.591238260269165039e-01,8.592534661293029785e-01,8.593869209289550781e-01,8.595008254051208496e-01,8.596156835556030273e-01,8.597823977470397949e-01,8.599436879158020020e-01,8.601627945899963379e-01,8.603479862213134766e-01,8.606185317039489746e-01,8.608887195587158203e-01,8.611508011817932129e-01,8.615035414695739746e-01,8.616781830787658691e-01,8.618149161338806152e-01,8.620962500572204590e-01,8.623049855232238770e-01,8.624494671821594238e-01,8.626447916030883789e-01,8.626566529273986816e-01,8.627479672431945801e-01,8.626266717910766602e-01,8.626097440719604492e-01,8.624421358108520508e-01,8.623517155647277832e-01,8.621373772621154785e-01,8.619607686996459961e-01,8.617961406707763672e-01,8.615063428878784180e-01,8.611637353897094727e-01,8.609912991523742676e-01,8.606318831443786621e-01,8.602963089942932129e-01,8.598334193229675293e-01,8.595372438430786133e-01,8.589204549789428711e-01,8.583405613899230957e-01,8.576185703277587891e-01,8.570355176925659180e-01,8.561133742332458496e-01,8.550429940223693848e-01,8.536753058433532715e-01,8.526511788368225098e-01,8.515127301216125488e-01,8.500398397445678711e-01,8.485669493675231934e-01,8.475178480148315430e-01,8.460310101509094238e-01,8.444694280624389648e-01,8.427981734275817871e-01,8.413370847702026367e-01,8.400427699089050293e-01,8.386983275413513184e-01,8.374996781349182129e-01,8.363339304924011230e-01,8.353839516639709473e-01,8.342027664184570312e-01,8.328770995140075684e-01,8.318152427673339844e-01,8.311506509780883789e-01,8.301643133163452148e-01,8.294792771339416504e-01,8.287636637687683105e-01,8.281478881835937500e-01,8.274686932563781738e-01,8.266549110412597656e-01,8.259249925613403320e-01,8.255907297134399414e-01,8.251605629920959473e-01,8.248375058174133301e-01,8.244500756263732910e-01,8.245046138763427734e-01,8.246692419052124023e-01,8.250800371170043945e-01,8.252080082893371582e-01,8.256667256355285645e-01,8.262670040130615234e-01,8.269170522689819336e-01,8.273535370826721191e-01,8.282567858695983887e-01,8.294532895088195801e-01,8.307110071182250977e-01,8.317850828170776367e-01,8.328228592872619629e-01,8.340993523597717285e-01,8.353473544120788574e-01
8.587144613265991211e-01,8.586385846138000488e-01,8.586052656173706055e-01,8.585128188133239746e-01,8.584411740303039551e-01,8.584575057029724121e-01,8.583417534828186035e-01,8.582698702812194824e-01,8.582003712654113770e-01,8.581148386001586914e-01,8.579506278038024902e-01,8.578755855560302734e-01,8.577954173088073730e-01,8.576642274856567383e-01,8.576491475105285645e-01,8.575549125671386719e-01,8.574398159980773926e-01,8.573436737060546875e-01,8.571816682815551758e-01,8.570517301559448242e-01,8.570638298988342285e-01,8.569645881652832031e-01,8.569442033767700195e-01,8.568671941757202148e-01,8.567969202995300293e-01,8.567367792129516602e-01,8.566640019416809082e-01,8.566564917564392090e-01,8.566497564315795898e-01,8.566449880599975586e-01,8.567948937416076660e-01,8.568252325057983398e-01,8.569359183311462402e-01,8.569688200950622559e-01,8.570903539657592773e-01,8.571775555610656738e-01,8.573077321052551270e-01,8.574480414390563965e-01,8.576631546020507812e-01,8.578501939773559570e-01,8.580563068389892578e-01,8.582130670547485352e-01,8.585776686668395996e-01,8.588030934333801270e-01,8.590901494026184082e-01,8.593467473983764648e-01,8.596094250679016113e-01,8.596784472465515137e-01,8.599688410758972168e-01,8.601048588752746582e-01,8.602542877197265625e-01,8.603358864784240723e-01,8.604388236999511719e-01,8.604377508163452148e-01,8.603283762931823730e-01,8.603195548057556152e-01,8.602173924446105957e-01,8.600514531135559082e-01,8.598623275756835938e-01,8.598066568374633789e-01,8.595430254936218262e-01,8.593565225601196289e-01,8.590145707130432129e-01,8.588600158691406250e-01,8.584671616554260254e-01,8.580184578895568848e-01,8.577183485031127930e-01,8.574092984199523926e-01,8.568634986877441406e-01,8.563421964645385742e-01,8.555426597595214844e-01,8.549793958663940430e-01,8.539642095565795898e-01,8.530049920082092285e-01,8.515353798866271973e-01,8.507054448127746582e-01,8.494921326637268066e-01,8.482071757316589355e-01,8.468123078346252441e-01,8.459315299987792969e-01,8.443616628646850586e-01,8.429156541824340820e-01,8.411852717399597168e-01,8.399422168731689453e-01,8.386477828025817871e-01,8.374823927879333496e-01,8.360809683799743652e-01,8.350405693054199219e-01,8.341299295425415039e-01,8.330374360084533691e-01,8.317505717277526855e-01,8.307022452354431152e-01,8.300814628601074219e-01,8.292646408081054688e-01,8.283901810646057129e-01,8.277884125709533691e-01,8.271301388740539551e-01,8.265418410301208496e-01,8.256959915161132812e-01,8.250446319580078125e-01,8.246437907218933105e-01,8.241635560989379883e-01,8.237779140472412109e-01,8.233531117439270020e-01,8.235713839530944824e-01,8.236601352691650391e-01,8.239887356758117676e-01,8.241944313049316406e-01,8.246080875396728516e-01,8.251335620880126953e-01,8.257712721824645996e-01,8.262623548507690430e-01,8.272802233695983887e-01,8.283258080482482910e-01,8.295199871063232422e-01,8.305023908615112305e-01,8.314656019210815430e-01,8.327079415321350098e-01,8.339692354202270508e-01
8.571510910987854004e-01,8.571118712425231934e-01,8.570668697357177734e-01,8.569882512092590332e-01,8.569285273551940918e-01,8.567892909049987793e-01,8.567547202110290527e-01,8.566909432411193848e-01,8.566679954528808594e-01,8.565465807914733887e-01,8.564366102218627930e-01,8.563718795776367188e-01,8.561824560165405273e-01,8.561158180236816406e-01,8.560647964477539062e-01,8.559108972549438477e-01,8.558461666107177734e-01,8.557925820350646973e-01,8.555861115455627441e-01,8.554608225822448730e-01,8.553753495216369629e-01,8.553155064582824707e-01,8.552393317222595215e-01,8.551848530769348145e-01,8.552159667015075684e-01,8.551466464996337891e-01,8.550369143486022949e-01,8.549736142158508301e-01,8.549995422363281250e-01,8.550063967704772949e-01,8.550949692726135254e-01,8.551746010780334473e-01,8.551930785179138184e-01,8.552926778793334961e-01,8.554012775421142578e-01,8.554674983024597168e-01,8.555874228477478027e-01,8.557372093200683594e-01,8.558936119079589844e-01,8.561394214630126953e-01,8.562455773353576660e-01,8.564516305923461914e-01,8.567339181900024414e-01,8.570349812507629395e-01,8.572603464126586914e-01,8.574900031089782715e-01,8.577834367752075195e-01,8.579866290092468262e-01,8.581919074058532715e-01,8.584334254264831543e-01,8.585542440414428711e-01,8.587674498558044434e-01,8.587644696235656738e-01,8.588394522666931152e-01,8.587156534194946289e-01,8.587198257446289062e-01,8.586441278457641602e-01,8.584664463996887207e-01,8.582609295845031738e-01,8.581735491752624512e-01,8.579017519950866699e-01,8.575811386108398438e-01,8.573527932167053223e-01,8.571807146072387695e-01,8.568844795227050781e-01,8.564367890357971191e-01,8.560106158256530762e-01,8.556610345840454102e-01,8.551619052886962891e-01,8.545368313789367676e-01,8.538417220115661621e-01,8.532179594039916992e-01,8.522784113883972168e-01,8.513736128807067871e-01,8.501523733139038086e-01,8.491409420967102051e-01,8.478636145591735840e-01,8.467072248458862305e-01,8.454427123069763184e-01,8.443500995635986328e-01,8.429957628250122070e-01,8.415906429290771484e-01,8.400465846061706543e-01,8.386788964271545410e-01,8.375076651573181152e-01,8.362534642219543457e-01,8.349632024765014648e-01,8.339172005653381348e-01,8.330923914909362793e-01,8.320095539093017578e-01,8.307497501373291016e-01,8.297736048698425293e-01,8.291185498237609863e-01,8.283609151840209961e-01,8.275741934776306152e-01,8.267954587936401367e-01,8.262940049171447754e-01,8.256624937057495117e-01,8.248959779739379883e-01,8.242193460464477539e-01,8.238309025764465332e-01,8.232968449592590332e-01,8.228664994239807129e-01,8.225249648094177246e-01,8.227764964103698730e-01,8.227192759513854980e-01,8.230232000350952148e-01,8.231961727142333984e-01,8.236732482910156250e-01,8.241992592811584473e-01,8.248333334922790527e-01,8.252922296524047852e-01,8.262271881103515625e-01,8.273171782493591309e-01,8.285284638404846191e-01,8.295183777809143066e-01,8.303595781326293945e-01,8.315790891647338867e-01,8.327013254165649414e-01
8.553086519241333008e-01,8.552421927452087402e-01,8.551521301269531250e-01,8.551298379898071289e-01,8.549854159355163574e-01,8.549586534500122070e-01,8.548706173896789551e-01,8.547986745834350586e-01,8.546833992004394531e-01,8.545932769775390625e-01,8.545349240303039551e-01,8.543699979782104492e-01,8.543321490287780762e-01,8.542081117630004883e-01,8.541625142097473145e-01,8.539657592773437500e-01,8.538969159126281738e-01,8.537523746490478516e-01,8.536850214004516602e-01,8.535689115524291992e-01,8.534169197082519531e-01,8.533726334571838379e-01,8.532603979110717773e-01,8.532416820526123047e-01,8.531700968742370605e-01,8.531221151351928711e-01,8.530434370040893555e-01,8.530053496360778809e-01,8.530402183532714844e-01,8.530699014663696289e-01,8.530968427658081055e-01,8.531594276428222656e-01,8.531498908996582031e-01,8.532035946846008301e-01,8.533269166946411133e-01,8.534560203552246094e-01,8.535565733909606934e-01,8.536690473556518555e-01,8.538351655006408691e-01,8.539489507675170898e-01,8.541514873504638672e-01,8.543640971183776855e-01,8.546615242958068848e-01,8.548300266265869141e-01,8.551376461982727051e-01,8.553855419158935547e-01,8.555998206138610840e-01,8.557832241058349609e-01,8.559529185295104980e-01,8.562287092208862305e-01,8.564332723617553711e-01,8.565759062767028809e-01,8.566052913665771484e-01,8.566938042640686035e-01,8.565910458564758301e-01,8.565790653228759766e-01,8.564304113388061523e-01,8.562682271003723145e-01,8.561530113220214844e-01,8.559601306915283203e-01,8.557233214378356934e-01,8.555775284767150879e-01,8.551774024963378906e-01,8.549713492393493652e-01,8.545945882797241211e-01,8.542634248733520508e-01,8.537930250167846680e-01,8.535439968109130859e-01,8.530070781707763672e-01,8.525264859199523926e-01,8.517853617668151855e-01,8.511713147163391113e-01,8.502772450447082520e-01,8.493359088897705078e-01,8.481725454330444336e-01,8.472506403923034668e-01,8.462173938751220703e-01,8.450987339019775391e-01,8.437176346778869629e-01,8.427090048789978027e-01,8.414139151573181152e-01,8.401578068733215332e-01,8.384662866592407227e-01,8.372283577919006348e-01,8.361693620681762695e-01,8.349121809005737305e-01,8.337211608886718750e-01,8.328525424003601074e-01,8.318558931350708008e-01,8.308186531066894531e-01,8.296729922294616699e-01,8.287500739097595215e-01,8.281265497207641602e-01,8.273794054985046387e-01,8.266112208366394043e-01,8.259449005126953125e-01,8.253779411315917969e-01,8.247078061103820801e-01,8.239921927452087402e-01,8.233674764633178711e-01,8.228982090950012207e-01,8.224824666976928711e-01,8.221070766448974609e-01,8.216026425361633301e-01,8.217306733131408691e-01,8.218762874603271484e-01,8.221240043640136719e-01,8.223640918731689453e-01,8.227576017379760742e-01,8.232861757278442383e-01,8.239573240280151367e-01,8.243673443794250488e-01,8.252845406532287598e-01,8.263095617294311523e-01,8.275417089462280273e-01,8.284187316894531250e-01,8.294368982315063477e-01,8.304695487022399902e-01,8.315371870994567871e-01
8.535732626914978027e-01,8.536169528961181641e-01,8.536107540130615234e-01,8.534690141677856445e-01,8.534666895866394043e-01,8.534317016601562500e-01,8.532910346984863281e-01,8.532089591026306152e-01,8.530815839767456055e-01,8.529850244522094727e-01,8.529343008995056152e-01,8.528060317039489746e-01,8.527012467384338379e-01,8.526325821876525879e-01,8.524761795997619629e-01,8.523402214050292969e-01,8.522736430168151855e-01,8.522223830223083496e-01,8.520442247390747070e-01,8.519635796546936035e-01,8.518070578575134277e-01,8.517372608184814453e-01,8.516619801521301270e-01,8.515778183937072754e-01,8.515535593032836914e-01,8.515251278877258301e-01,8.514518737792968750e-01,8.514466881752014160e-01,8.513551950454711914e-01,8.514842987060546875e-01,8.514959812164306641e-01,8.515138030052185059e-01,8.515325188636779785e-01,8.515899181365966797e-01,8.516856431961059570e-01,8.516800999641418457e-01,8.518374562263488770e-01,8.518978953361511230e-01,8.520750403404235840e-01,8.521713018417358398e-01,8.523927927017211914e-01,8.525394797325134277e-01,8.528414964675903320e-01,8.530169725418090820e-01,8.532134890556335449e-01,8.535031676292419434e-01,8.537861108779907227e-01,8.538692593574523926e-01,8.539650440216064453e-01,8.541810512542724609e-01,8.544176220893859863e-01,8.545466661453247070e-01,8.545857071876525879e-01,8.547192811965942383e-01,8.546884059906005859e-01,8.546532392501831055e-01,8.544874787330627441e-01,8.543947935104370117e-01,8.542523980140686035e-01,8.540610074996948242e-01,8.538191318511962891e-01,8.536553978919982910e-01,8.533352613449096680e-01,8.530561923980712891e-01,8.527106046676635742e-01,8.523824214935302734e-01,8.519808650016784668e-01,8.516928553581237793e-01,8.511888384819030762e-01,8.507027626037597656e-01,8.499798178672790527e-01,8.494253754615783691e-01,8.486248850822448730e-01,8.476781845092773438e-01,8.465582132339477539e-01,8.456416726112365723e-01,8.447105884552001953e-01,8.435453176498413086e-01,8.421782851219177246e-01,8.411408066749572754e-01,8.399860262870788574e-01,8.387717008590698242e-01,8.371528387069702148e-01,8.358879685401916504e-01,8.349152207374572754e-01,8.336036801338195801e-01,8.325183987617492676e-01,8.315848708152770996e-01,8.306971192359924316e-01,8.297342061996459961e-01,8.286818265914916992e-01,8.277716636657714844e-01,8.271183371543884277e-01,8.263033628463745117e-01,8.256504535675048828e-01,8.250597119331359863e-01,8.245244026184082031e-01,8.238835930824279785e-01,8.231331110000610352e-01,8.223690986633300781e-01,8.220026493072509766e-01,8.215397000312805176e-01,8.211016058921813965e-01,8.207187056541442871e-01,8.208090066909790039e-01,8.209117054939270020e-01,8.211094141006469727e-01,8.214230537414550781e-01,8.216598629951477051e-01,8.222059607505798340e-01,8.229016065597534180e-01,8.233503699302673340e-01,8.241316080093383789e-01,8.252676725387573242e-01,8.264138698577880859e-01,8.274118304252624512e-01,8.282637596130371094e-01,8.294017910957336426e-01,8.302424550056457520e-01
8.514842391014099121e-01,8.514733314514160156e-01,8.513950109481811523e-01,8.513403534889221191e-01,8.513023853302001953e-01,8.511026501655578613e-01,8.510586023330688477e-01,8.510000705718994141e-01,8.509602546691894531e-01,8.507869839668273926e-01,8.507587313652038574e-01,8.506466150283813477e-01,8.505816459655761719e-01,8.504955768585205078e-01,8.503746390342712402e-01,8.502794504165649414e-01,8.501431941986083984e-01,8.500181436538696289e-01,8.498762845993041992e-01,8.497483134269714355e-01,8.496981859207153320e-01,8.495951890945434570e-01,8.495360612869262695e-01,8.494180440902709961e-01,8.493742942810058594e-01,8.492941260337829590e-01,8.492791652679443359e-01,8.492193222045898438e-01,8.492254018783569336e-01,8.490952253341674805e-01,8.491774797439575195e-01,8.491957783699035645e-01,8.492636680603027344e-01,8.493189811706542969e-01,8.493613004684448242e-01,8.494380116462707520e-01,8.495180010795593262e-01,8.495681881904602051e-01,8.497315645217895508e-01,8.498204946517944336e-01,8.500267267227172852e-01,8.501486778259277344e-01,8.504827022552490234e-01,8.506147861480712891e-01,8.509149551391601562e-01,8.511177301406860352e-01,8.512280583381652832e-01,8.513379096984863281e-01,8.515473008155822754e-01,8.517221212387084961e-01,8.519143462181091309e-01,8.520393967628479004e-01,8.520876765251159668e-01,8.520652651786804199e-01,8.519523143768310547e-01,8.519538044929504395e-01,8.518308401107788086e-01,8.517650365829467773e-01,8.516260981559753418e-01,8.515314459800720215e-01,8.513025641441345215e-01,8.510050773620605469e-01,8.508054018020629883e-01,8.506014943122863770e-01,8.502742052078247070e-01,8.499889969825744629e-01,8.495659232139587402e-01,8.493565320968627930e-01,8.488828539848327637e-01,8.483861684799194336e-01,8.476989865303039551e-01,8.471829295158386230e-01,8.463319540023803711e-01,8.454832434654235840e-01,8.443607091903686523e-01,8.435528278350830078e-01,8.424779176712036133e-01,8.414096832275390625e-01,8.400660157203674316e-01,8.391513824462890625e-01,8.379764556884765625e-01,8.368420004844665527e-01,8.353554606437683105e-01,8.342304229736328125e-01,8.332214951515197754e-01,8.320767879486083984e-01,8.308718800544738770e-01,8.299251794815063477e-01,8.290994167327880859e-01,8.282901048660278320e-01,8.272455334663391113e-01,8.263161778450012207e-01,8.256626725196838379e-01,8.249858617782592773e-01,8.243827223777770996e-01,8.237595558166503906e-01,8.231624364852905273e-01,8.226649761199951172e-01,8.217883706092834473e-01,8.211124539375305176e-01,8.208408951759338379e-01,8.202589154243469238e-01,8.197945356369018555e-01,8.193907737731933594e-01,8.194875121116638184e-01,8.196478486061096191e-01,8.198027610778808594e-01,8.199772238731384277e-01,8.203815221786499023e-01,8.209449052810668945e-01,8.214941024780273438e-01,8.219074606895446777e-01,8.227322101593017578e-01,8.237715363502502441e-01,8.248969316482543945e-01,8.257583379745483398e-01,8.266448378562927246e-01,8.277620077133178711e-01,8.286025524139404297e-01
8.497831225395202637e-01,8.496316671371459961e-01,8.495449423789978027e-01,8.494459986686706543e-01,8.494116663932800293e-01,8.494637012481689453e-01,8.492805957794189453e-01,8.492470979690551758e-01,8.490940928459167480e-01,8.490692377090454102e-01,8.489665389060974121e-01,8.488195538520812988e-01,8.487793803215026855e-01,8.486644029617309570e-01,8.485603332519531250e-01,8.484503030776977539e-01,8.483400940895080566e-01,8.482018709182739258e-01,8.480413556098937988e-01,8.479787707328796387e-01,8.478239774703979492e-01,8.477936387062072754e-01,8.477261662483215332e-01,8.476316928863525391e-01,8.476229906082153320e-01,8.475465178489685059e-01,8.474960923194885254e-01,8.473644256591796875e-01,8.473961353302001953e-01,8.473469614982604980e-01,8.474045991897583008e-01,8.473575115203857422e-01,8.474085330963134766e-01,8.474625349044799805e-01,8.474631309509277344e-01,8.475880622863769531e-01,8.476323485374450684e-01,8.476986289024353027e-01,8.477516770362854004e-01,8.478861451148986816e-01,8.480615615844726562e-01,8.482826948165893555e-01,8.484960794448852539e-01,8.486219048500061035e-01,8.488160371780395508e-01,8.491141796112060547e-01,8.492593169212341309e-01,8.493558764457702637e-01,8.495063781738281250e-01,8.497136235237121582e-01,8.498433232307434082e-01,8.499633669853210449e-01,8.499676585197448730e-01,8.500360250473022461e-01,8.499851226806640625e-01,8.499742150306701660e-01,8.498651981353759766e-01,8.497331142425537109e-01,8.495758175849914551e-01,8.494874835014343262e-01,8.492550253868103027e-01,8.490676283836364746e-01,8.487826585769653320e-01,8.485801219940185547e-01,8.482586741447448730e-01,8.479282259941101074e-01,8.476451039314270020e-01,8.473777770996093750e-01,8.469043374061584473e-01,8.464960455894470215e-01,8.457878828048706055e-01,8.451901078224182129e-01,8.445163369178771973e-01,8.436606526374816895e-01,8.425823450088500977e-01,8.416489958763122559e-01,8.407368063926696777e-01,8.396562933921813965e-01,8.385951519012451172e-01,8.375360965728759766e-01,8.363739848136901855e-01,8.351102471351623535e-01,8.337379693984985352e-01,8.326312303543090820e-01,8.316978216171264648e-01,8.305507302284240723e-01,8.295337557792663574e-01,8.285712599754333496e-01,8.279156088829040527e-01,8.269190788269042969e-01,8.259276747703552246e-01,8.249373435974121094e-01,8.243870139122009277e-01,8.237783312797546387e-01,8.231729269027709961e-01,8.225083351135253906e-01,8.221111297607421875e-01,8.214702606201171875e-01,8.206611871719360352e-01,8.199361562728881836e-01,8.197434544563293457e-01,8.190953135490417480e-01,8.186296224594116211e-01,8.182124495506286621e-01,8.183669447898864746e-01,8.184596896171569824e-01,8.186614513397216797e-01,8.187952637672424316e-01,8.192485570907592773e-01,8.197384476661682129e-01,8.204224705696105957e-01,8.208560347557067871e-01,8.215652704238891602e-01,8.225599527359008789e-01,8.235845565795898438e-01,8.244962096214294434e-01,8.252852559089660645e-01,8.264037370681762695e-01,8.272546529769897461e-01
8.478736877441406250e-01,8.477491140365600586e-01,8.476518988609313965e-01,8.475578427314758301e-01,8.475311398506164551e-01,8.474897146224975586e-01,8.473390340805053711e-01,8.472911715507507324e-01,8.471580147743225098e-01,8.470786213874816895e-01,8.469417095184326172e-01,8.469263315200805664e-01,8.467981219291687012e-01,8.466421365737915039e-01,8.465935587882995605e-01,8.464577794075012207e-01,8.463287949562072754e-01,8.462371230125427246e-01,8.460334539413452148e-01,8.459889292716979980e-01,8.458750247955322266e-01,8.457595109939575195e-01,8.456396460533142090e-01,8.455111384391784668e-01,8.455072641372680664e-01,8.453924655914306641e-01,8.453209996223449707e-01,8.452961444854736328e-01,8.453124165534973145e-01,8.452830910682678223e-01,8.452952504158020020e-01,8.451737165451049805e-01,8.452769517898559570e-01,8.453249931335449219e-01,8.453684449195861816e-01,8.454016447067260742e-01,8.454696536064147949e-01,8.454215526580810547e-01,8.455279469490051270e-01,8.456464409828186035e-01,8.458179831504821777e-01,8.459653854370117188e-01,8.462260365486145020e-01,8.464159965515136719e-01,8.466205596923828125e-01,8.468402624130249023e-01,8.469924330711364746e-01,8.471497297286987305e-01,8.472689986228942871e-01,8.474355936050415039e-01,8.475778102874755859e-01,8.477152585983276367e-01,8.477916121482849121e-01,8.477873206138610840e-01,8.477509021759033203e-01,8.477376103401184082e-01,8.476378321647644043e-01,8.475186824798583984e-01,8.473979830741882324e-01,8.472732305526733398e-01,8.470509648323059082e-01,8.468230366706848145e-01,8.465528488159179688e-01,8.463659286499023438e-01,8.460877537727355957e-01,8.457624912261962891e-01,8.454507589340209961e-01,8.451176881790161133e-01,8.446637988090515137e-01,8.442251682281494141e-01,8.436370491981506348e-01,8.431779742240905762e-01,8.423621058464050293e-01,8.415981531143188477e-01,8.404027819633483887e-01,8.396249413490295410e-01,8.387586474418640137e-01,8.377927541732788086e-01,8.365548253059387207e-01,8.356307744979858398e-01,8.345927000045776367e-01,8.334628939628601074e-01,8.320240378379821777e-01,8.310285210609436035e-01,8.300065398216247559e-01,8.289787769317626953e-01,8.278812766075134277e-01,8.270763158798217773e-01,8.263438344001770020e-01,8.255004882812500000e-01,8.244773149490356445e-01,8.237088322639465332e-01,8.231455683708190918e-01,8.225417137145996094e-01,8.218500614166259766e-01,8.213118314743041992e-01,8.208733201026916504e-01,8.201452493667602539e-01,8.193809986114501953e-01,8.187477588653564453e-01,8.184600472450256348e-01,8.179325461387634277e-01,8.174063563346862793e-01,8.170450329780578613e-01,8.171926140785217285e-01,8.172741532325744629e-01,8.173950314521789551e-01,8.175732493400573730e-01,8.180347681045532227e-01,8.185590505599975586e-01,8.192137479782104492e-01,8.196452260017395020e-01,8.203027844429016113e-01,8.212518692016601562e-01,8.224071264266967773e-01,8.231128454208374023e-01,8.237922191619873047e-01,8.248862624168395996e-01,8.258186578750610352e-01
8.460444808006286621e-01,8.459315299987792969e-01,8.457878828048706055e-01,8.457003831863403320e-01,8.457217812538146973e-01,8.456318378448486328e-01,8.455163836479187012e-01,8.454827666282653809e-01,8.453013300895690918e-01,8.452869057655334473e-01,8.451474905014038086e-01,8.450069427490234375e-01,8.449176549911499023e-01,8.448404073715209961e-01,8.446643352508544922e-01,8.445383906364440918e-01,8.443840146064758301e-01,8.442313671112060547e-01,8.442165255546569824e-01,8.439674973487854004e-01,8.439533710479736328e-01,8.438959717750549316e-01,8.437840342521667480e-01,8.436274528503417969e-01,8.436139822006225586e-01,8.435722589492797852e-01,8.434628248214721680e-01,8.433820009231567383e-01,8.433492183685302734e-01,8.433595299720764160e-01,8.433383107185363770e-01,8.432325124740600586e-01,8.433262705802917480e-01,8.434061408042907715e-01,8.433765769004821777e-01,8.433727025985717773e-01,8.434160947799682617e-01,8.434851169586181641e-01,8.435950279235839844e-01,8.436523079872131348e-01,8.438538908958435059e-01,8.439757227897644043e-01,8.441529870033264160e-01,8.443413972854614258e-01,8.445612788200378418e-01,8.446868658065795898e-01,8.448873162269592285e-01,8.450142145156860352e-01,8.451828360557556152e-01,8.453819751739501953e-01,8.454698324203491211e-01,8.456488251686096191e-01,8.456752300262451172e-01,8.457112312316894531e-01,8.456531763076782227e-01,8.456724286079406738e-01,8.455495834350585938e-01,8.454194068908691406e-01,8.453493714332580566e-01,8.451844453811645508e-01,8.450204133987426758e-01,8.448712229728698730e-01,8.444835543632507324e-01,8.443133831024169922e-01,8.440972566604614258e-01,8.437150120735168457e-01,8.433472514152526855e-01,8.430948853492736816e-01,8.425916433334350586e-01,8.421981930732727051e-01,8.416214585304260254e-01,8.410839438438415527e-01,8.403798937797546387e-01,8.396996855735778809e-01,8.386715054512023926e-01,8.377966284751892090e-01,8.368767499923706055e-01,8.359063863754272461e-01,8.346759676933288574e-01,8.337889313697814941e-01,8.328168988227844238e-01,8.316491246223449707e-01,8.304430246353149414e-01,8.293506503105163574e-01,8.284394741058349609e-01,8.274543285369873047e-01,8.265222311019897461e-01,8.256495594978332520e-01,8.249753713607788086e-01,8.240135312080383301e-01,8.231936693191528320e-01,8.223466277122497559e-01,8.218253254890441895e-01,8.212008476257324219e-01,8.206443190574645996e-01,8.200079798698425293e-01,8.195387721061706543e-01,8.189831972122192383e-01,8.181269168853759766e-01,8.175344467163085938e-01,8.172625303268432617e-01,8.166952729225158691e-01,8.163162469863891602e-01,8.159610033035278320e-01,8.160009980201721191e-01,8.160254955291748047e-01,8.162485361099243164e-01,8.163716197013854980e-01,8.168101906776428223e-01,8.173989057540893555e-01,8.180064558982849121e-01,8.183817863464355469e-01,8.190490603446960449e-01,8.200441598892211914e-01,8.211097121238708496e-01,8.218530416488647461e-01,8.225249052047729492e-01,8.235399127006530762e-01,8.243291974067687988e-01
8.436332345008850098e-01,8.435791134834289551e-01,8.434236645698547363e-01,8.433218598365783691e-01,8.432545065879821777e-01,8.431553840637207031e-01,8.430451750755310059e-01,8.430097699165344238e-01,8.428681492805480957e-01,8.427663445472717285e-01,8.426309227943420410e-01,8.425545692443847656e-01,8.425008058547973633e-01,8.422987461090087891e-01,8.421771526336669922e-01,8.420571088790893555e-01,8.419970870018005371e-01,8.418217301368713379e-01,8.417419791221618652e-01,8.415235280990600586e-01,8.414628505706787109e-01,8.413980603218078613e-01,8.412544131278991699e-01,8.411551117897033691e-01,8.411312699317932129e-01,8.410677909851074219e-01,8.409224152565002441e-01,8.408483862876892090e-01,8.408092856407165527e-01,8.408743739128112793e-01,8.408399820327758789e-01,8.407903909683227539e-01,8.408249616622924805e-01,8.408868908882141113e-01,8.408845663070678711e-01,8.408445119857788086e-01,8.408853411674499512e-01,8.409352302551269531e-01,8.409700989723205566e-01,8.410523533821105957e-01,8.411623835563659668e-01,8.412318229675292969e-01,8.414779901504516602e-01,8.416384458541870117e-01,8.418517112731933594e-01,8.419044613838195801e-01,8.421087265014648438e-01,8.422353863716125488e-01,8.424002528190612793e-01,8.425107002258300781e-01,8.426777124404907227e-01,8.428603410720825195e-01,8.428171277046203613e-01,8.428815007209777832e-01,8.429092168807983398e-01,8.429017663002014160e-01,8.427867293357849121e-01,8.426144123077392578e-01,8.424658775329589844e-01,8.424445390701293945e-01,8.422691226005554199e-01,8.420371413230895996e-01,8.417581319808959961e-01,8.415709733963012695e-01,8.413625359535217285e-01,8.410503268241882324e-01,8.406187891960144043e-01,8.403439521789550781e-01,8.398758769035339355e-01,8.395265340805053711e-01,8.390067219734191895e-01,8.386045098304748535e-01,8.378840088844299316e-01,8.371191620826721191e-01,8.361152410507202148e-01,8.353978991508483887e-01,8.345372080802917480e-01,8.335509896278381348e-01,8.324332237243652344e-01,8.316064476966857910e-01,8.305738568305969238e-01,8.295438885688781738e-01,8.282963037490844727e-01,8.274383544921875000e-01,8.265393972396850586e-01,8.255403041839599609e-01,8.245466947555541992e-01,8.237831592559814453e-01,8.231409192085266113e-01,8.223387598991394043e-01,8.214699625968933105e-01,8.206788897514343262e-01,8.201848864555358887e-01,8.194898366928100586e-01,8.189572691917419434e-01,8.184210062026977539e-01,8.179574608802795410e-01,8.173619508743286133e-01,8.165859580039978027e-01,8.160580992698669434e-01,8.157050013542175293e-01,8.151201009750366211e-01,8.147457838058471680e-01,8.143074512481689453e-01,8.144329190254211426e-01,8.144581913948059082e-01,8.147115111351013184e-01,8.148853778839111328e-01,8.153028488159179688e-01,8.157408237457275391e-01,8.164365291595458984e-01,8.168851733207702637e-01,8.175219893455505371e-01,8.183432817459106445e-01,8.193716406822204590e-01,8.200428485870361328e-01,8.207459449768066406e-01,8.216267824172973633e-01,8.224689960479736328e-01
8.418467640876770020e-01,8.417599797248840332e-01,8.416193127632141113e-01,8.415378332138061523e-01,8.415571451187133789e-01,8.413851261138916016e-01,8.412898778915405273e-01,8.412407636642456055e-01,8.410599231719970703e-01,8.410279750823974609e-01,8.408659100532531738e-01,8.407838344573974609e-01,8.406895399093627930e-01,8.405880331993103027e-01,8.404035568237304688e-01,8.403054475784301758e-01,8.401765823364257812e-01,8.400089144706726074e-01,8.398808240890502930e-01,8.397548198699951172e-01,8.396469354629516602e-01,8.396192193031311035e-01,8.393800258636474609e-01,8.393368124961853027e-01,8.392820358276367188e-01,8.392233252525329590e-01,8.391054868698120117e-01,8.390160799026489258e-01,8.388999104499816895e-01,8.389232754707336426e-01,8.388171195983886719e-01,8.387860059738159180e-01,8.388118743896484375e-01,8.388450145721435547e-01,8.388369679450988770e-01,8.388354778289794922e-01,8.388549089431762695e-01,8.389079570770263672e-01,8.390530347824096680e-01,8.390800356864929199e-01,8.391394615173339844e-01,8.393504023551940918e-01,8.394826650619506836e-01,8.396067619323730469e-01,8.398138880729675293e-01,8.399077653884887695e-01,8.400914669036865234e-01,8.403005003929138184e-01,8.403370976448059082e-01,8.405280709266662598e-01,8.407108783721923828e-01,8.408695459365844727e-01,8.408915400505065918e-01,8.408854603767395020e-01,8.408927917480468750e-01,8.408825397491455078e-01,8.408072590827941895e-01,8.406407833099365234e-01,8.404800891876220703e-01,8.404050469398498535e-01,8.402470350265502930e-01,8.400275111198425293e-01,8.398191928863525391e-01,8.396220207214355469e-01,8.393524885177612305e-01,8.390046954154968262e-01,8.387195467948913574e-01,8.383296132087707520e-01,8.379194736480712891e-01,8.375695943832397461e-01,8.370139002799987793e-01,8.365235328674316406e-01,8.358779549598693848e-01,8.350837826728820801e-01,8.342020511627197266e-01,8.333297967910766602e-01,8.324827551841735840e-01,8.316099643707275391e-01,8.305726647377014160e-01,8.296987414360046387e-01,8.288421034812927246e-01,8.278388977050781250e-01,8.266302347183227539e-01,8.256181478500366211e-01,8.248197436332702637e-01,8.238911032676696777e-01,8.230413794517517090e-01,8.221720457077026367e-01,8.215562105178833008e-01,8.207723498344421387e-01,8.200747966766357422e-01,8.191593885421752930e-01,8.186567425727844238e-01,8.181171417236328125e-01,8.175810575485229492e-01,8.169988989830017090e-01,8.165265917778015137e-01,8.159312605857849121e-01,8.152311444282531738e-01,8.146287202835083008e-01,8.142659068107604980e-01,8.138789534568786621e-01,8.134325146675109863e-01,8.129410147666931152e-01,8.130554556846618652e-01,8.130251169204711914e-01,8.133613467216491699e-01,8.136288523674011230e-01,8.139430880546569824e-01,8.144689202308654785e-01,8.150128126144409180e-01,8.154215216636657715e-01,8.160264492034912109e-01,8.169302344322204590e-01,8.178668022155761719e-01,8.185998797416687012e-01,8.191813826560974121e-01,8.201503753662109375e-01,8.209217190742492676e-01
8.396325707435607910e-01,8.395636677742004395e-01,8.394833803176879883e-01,8.393827080726623535e-01,8.392651677131652832e-01,8.391865491867065430e-01,8.390542268753051758e-01,8.389813899993896484e-01,8.388832807540893555e-01,8.387953639030456543e-01,8.386316299438476562e-01,8.385066986083984375e-01,8.384615182876586914e-01,8.383119702339172363e-01,8.381534218788146973e-01,8.380988240242004395e-01,8.379958271980285645e-01,8.378788232803344727e-01,8.376963734626770020e-01,8.375768065452575684e-01,8.374282717704772949e-01,8.372586369514465332e-01,8.372520804405212402e-01,8.371090888977050781e-01,8.370667695999145508e-01,8.368964195251464844e-01,8.368918299674987793e-01,8.366993665695190430e-01,8.366570472717285156e-01,8.366247415542602539e-01,8.366451263427734375e-01,8.365539908409118652e-01,8.365657925605773926e-01,8.365898728370666504e-01,8.365773558616638184e-01,8.365176916122436523e-01,8.365290760993957520e-01,8.365923762321472168e-01,8.366756439208984375e-01,8.366910219192504883e-01,8.367735743522644043e-01,8.369295597076416016e-01,8.370848298072814941e-01,8.372349143028259277e-01,8.373798727989196777e-01,8.374980092048645020e-01,8.376895189285278320e-01,8.378108739852905273e-01,8.379082679748535156e-01,8.381028771400451660e-01,8.382444977760314941e-01,8.383281826972961426e-01,8.383440375328063965e-01,8.383851051330566406e-01,8.383659124374389648e-01,8.383301496505737305e-01,8.382679820060729980e-01,8.381822109222412109e-01,8.380885720252990723e-01,8.380535840988159180e-01,8.377956151962280273e-01,8.376336693763732910e-01,8.373528718948364258e-01,8.372002243995666504e-01,8.369719386100769043e-01,8.366190195083618164e-01,8.363187909126281738e-01,8.360271453857421875e-01,8.355661630630493164e-01,8.351718187332153320e-01,8.346217274665832520e-01,8.341321945190429688e-01,8.334547877311706543e-01,8.328145742416381836e-01,8.318037986755371094e-01,8.310928344726562500e-01,8.302821516990661621e-01,8.294412493705749512e-01,8.283652663230895996e-01,8.276238441467285156e-01,8.267761468887329102e-01,8.258705735206604004e-01,8.246304988861083984e-01,8.237201571464538574e-01,8.229594230651855469e-01,8.220136165618896484e-01,8.212512135505676270e-01,8.205452561378479004e-01,8.198645114898681641e-01,8.190616965293884277e-01,8.182345032691955566e-01,8.175002336502075195e-01,8.171367049217224121e-01,8.165264129638671875e-01,8.158562779426574707e-01,8.153992891311645508e-01,8.148870468139648438e-01,8.143506646156311035e-01,8.136765956878662109e-01,8.130431175231933594e-01,8.126802444458007812e-01,8.122852444648742676e-01,8.118281960487365723e-01,8.113589882850646973e-01,8.115497827529907227e-01,8.116216659545898438e-01,8.120412826538085938e-01,8.122054338455200195e-01,8.125526905059814453e-01,8.130147457122802734e-01,8.135521411895751953e-01,8.139481544494628906e-01,8.145288825035095215e-01,8.152864575386047363e-01,8.163288831710815430e-01,8.170110583305358887e-01,8.175193667411804199e-01,8.183904290199279785e-01,8.192598223686218262e-01
8.376993536949157715e-01,8.375527262687683105e-01,8.374508023262023926e-01,8.374315500259399414e-01,8.373352885246276855e-01,8.371780514717102051e-01,8.370953798294067383e-01,8.370378017425537109e-01,8.368368148803710938e-01,8.368298411369323730e-01,8.366245627403259277e-01,8.364484906196594238e-01,8.363902568817138672e-01,8.362957835197448730e-01,8.361451625823974609e-01,8.359753489494323730e-01,8.358542919158935547e-01,8.357692956924438477e-01,8.356020450592041016e-01,8.354289531707763672e-01,8.353769183158874512e-01,8.352451324462890625e-01,8.351089358329772949e-01,8.349187374114990234e-01,8.348861336708068848e-01,8.347863554954528809e-01,8.346953988075256348e-01,8.345997333526611328e-01,8.345495462417602539e-01,8.345059156417846680e-01,8.345203995704650879e-01,8.344219326972961426e-01,8.344562053680419922e-01,8.344833254814147949e-01,8.345077633857727051e-01,8.344458937644958496e-01,8.344682455062866211e-01,8.345651030540466309e-01,8.345276713371276855e-01,8.345227837562561035e-01,8.346298933029174805e-01,8.347962498664855957e-01,8.349503874778747559e-01,8.350644111633300781e-01,8.351051807403564453e-01,8.352031111717224121e-01,8.354043364524841309e-01,8.355299830436706543e-01,8.356711864471435547e-01,8.358022570610046387e-01,8.359351754188537598e-01,8.360618948936462402e-01,8.361046910285949707e-01,8.361175060272216797e-01,8.360444307327270508e-01,8.360239863395690918e-01,8.359343409538269043e-01,8.358598947525024414e-01,8.357756733894348145e-01,8.356896042823791504e-01,8.355245590209960938e-01,8.353677988052368164e-01,8.351283073425292969e-01,8.349537253379821777e-01,8.346679210662841797e-01,8.343775868415832520e-01,8.341101408004760742e-01,8.338249921798706055e-01,8.334879875183105469e-01,8.330017924308776855e-01,8.324577808380126953e-01,8.320100903511047363e-01,8.314439058303833008e-01,8.307221531867980957e-01,8.298982977867126465e-01,8.291567564010620117e-01,8.284560441970825195e-01,8.274407982826232910e-01,8.264991044998168945e-01,8.257706761360168457e-01,8.249501585960388184e-01,8.239361643791198730e-01,8.228625655174255371e-01,8.219254612922668457e-01,8.212997913360595703e-01,8.204048275947570801e-01,8.195710182189941406e-01,8.189311027526855469e-01,8.182700872421264648e-01,8.174780011177062988e-01,8.167732357978820801e-01,8.160517215728759766e-01,8.156137466430664062e-01,8.149926662445068359e-01,8.144687414169311523e-01,8.139631152153015137e-01,8.135111927986145020e-01,8.129482865333557129e-01,8.122413158416748047e-01,8.116543889045715332e-01,8.114202022552490234e-01,8.109115362167358398e-01,8.105054497718811035e-01,8.100298047065734863e-01,8.102427124977111816e-01,8.103202581405639648e-01,8.107026815414428711e-01,8.108468651771545410e-01,8.111965656280517578e-01,8.117089867591857910e-01,8.123482465744018555e-01,8.127232789993286133e-01,8.131656646728515625e-01,8.141121268272399902e-01,8.148223757743835449e-01,8.155649900436401367e-01,8.160348534584045410e-01,8.169240951538085938e-01,8.176753520965576172e-01
8.350234627723693848e-01,8.349811434745788574e-01,8.348996043205261230e-01,8.347142934799194336e-01,8.346083164215087891e-01,8.345092535018920898e-01,8.343625664710998535e-01,8.342099189758300781e-01,8.341199755668640137e-01,8.341112732887268066e-01,8.339291214942932129e-01,8.338186740875244141e-01,8.336854577064514160e-01,8.335214853286743164e-01,8.334711790084838867e-01,8.332625031471252441e-01,8.332138061523437500e-01,8.330795764923095703e-01,8.328401446342468262e-01,8.327605724334716797e-01,8.325643539428710938e-01,8.324857950210571289e-01,8.323889970779418945e-01,8.322209119796752930e-01,8.321650624275207520e-01,8.320650458335876465e-01,8.319624066352844238e-01,8.319364190101623535e-01,8.319082260131835938e-01,8.318364620208740234e-01,8.317333459854125977e-01,8.317340016365051270e-01,8.317012786865234375e-01,8.316548466682434082e-01,8.316870927810668945e-01,8.316111564636230469e-01,8.316442966461181641e-01,8.316423296928405762e-01,8.316763639450073242e-01,8.316574692726135254e-01,8.317421674728393555e-01,8.318572044372558594e-01,8.320603966712951660e-01,8.321337699890136719e-01,8.321999311447143555e-01,8.323396444320678711e-01,8.325268626213073730e-01,8.326932787895202637e-01,8.328092098236083984e-01,8.328900337219238281e-01,8.329619169235229492e-01,8.330155014991760254e-01,8.330193161964416504e-01,8.330910801887512207e-01,8.330596089363098145e-01,8.330299258232116699e-01,8.329731822013854980e-01,8.328942060470581055e-01,8.328585624694824219e-01,8.327230215072631836e-01,8.325579762458801270e-01,8.324184417724609375e-01,8.321707844734191895e-01,8.320091962814331055e-01,8.318165540695190430e-01,8.316055536270141602e-01,8.311861157417297363e-01,8.309748768806457520e-01,8.306063413619995117e-01,8.301364183425903320e-01,8.296056389808654785e-01,8.292601108551025391e-01,8.286089301109313965e-01,8.280134797096252441e-01,8.271641135215759277e-01,8.265272974967956543e-01,8.257467746734619141e-01,8.248898983001708984e-01,8.240068554878234863e-01,8.233326673507690430e-01,8.224852085113525391e-01,8.216825127601623535e-01,8.206406831741333008e-01,8.197374939918518066e-01,8.190145492553710938e-01,8.182613253593444824e-01,8.174635171890258789e-01,8.167176842689514160e-01,8.161991834640502930e-01,8.154436945915222168e-01,8.146911859512329102e-01,8.141206502914428711e-01,8.137282133102416992e-01,8.130379319190979004e-01,8.124424219131469727e-01,8.119871020317077637e-01,8.116414546966552734e-01,8.109806776046752930e-01,8.103941082954406738e-01,8.098829984664916992e-01,8.096431493759155273e-01,8.090953826904296875e-01,8.087350726127624512e-01,8.083391189575195312e-01,8.084350228309631348e-01,8.085818290710449219e-01,8.089898228645324707e-01,8.092060685157775879e-01,8.095105886459350586e-01,8.100174069404602051e-01,8.105258941650390625e-01,8.108633756637573242e-01,8.114103674888610840e-01,8.121844530105590820e-01,8.128699064254760742e-01,8.135411143302917480e-01,8.141156435012817383e-01,8.147868514060974121e-01,8.154150843620300293e-01
8.328129053115844727e-01,8.327085971832275391e-01,8.326808214187622070e-01,8.325885534286499023e-01,8.324704170227050781e-01,8.323396444320678711e-01,8.322443962097167969e-01,8.320519328117370605e-01,8.321119546890258789e-01,8.318857550621032715e-01,8.317703604698181152e-01,8.316581249237060547e-01,8.315300941467285156e-01,8.313556313514709473e-01,8.312665820121765137e-01,8.310250639915466309e-01,8.309919834136962891e-01,8.308750987052917480e-01,8.307369947433471680e-01,8.305543661117553711e-01,8.304367065429687500e-01,8.303413987159729004e-01,8.301420807838439941e-01,8.300371766090393066e-01,8.299542069435119629e-01,8.299103975296020508e-01,8.297520279884338379e-01,8.296163678169250488e-01,8.295661807060241699e-01,8.295009732246398926e-01,8.294674754142761230e-01,8.294382691383361816e-01,8.294639587402343750e-01,8.294293880462646484e-01,8.293778300285339355e-01,8.293946981430053711e-01,8.293886780738830566e-01,8.294113874435424805e-01,8.294270634651184082e-01,8.293748497962951660e-01,8.294617533683776855e-01,8.295644521713256836e-01,8.296685814857482910e-01,8.297500014305114746e-01,8.298938870429992676e-01,8.300363421440124512e-01,8.302274942398071289e-01,8.302906155586242676e-01,8.303836584091186523e-01,8.304498195648193359e-01,8.305011391639709473e-01,8.306207060813903809e-01,8.306543231010437012e-01,8.307330608367919922e-01,8.307229280471801758e-01,8.307014107704162598e-01,8.305810093879699707e-01,8.304963111877441406e-01,8.304505944252014160e-01,8.303253054618835449e-01,8.302131295204162598e-01,8.300262689590454102e-01,8.298400044441223145e-01,8.296705484390258789e-01,8.294535279273986816e-01,8.292623162269592285e-01,8.288666605949401855e-01,8.286796212196350098e-01,8.282598853111267090e-01,8.278369307518005371e-01,8.272613286972045898e-01,8.269207477569580078e-01,8.263651132583618164e-01,8.256374001502990723e-01,8.249168395996093750e-01,8.242337107658386230e-01,8.235235214233398438e-01,8.227317929267883301e-01,8.218957781791687012e-01,8.211055994033813477e-01,8.204604387283325195e-01,8.195149898529052734e-01,8.186027407646179199e-01,8.178765177726745605e-01,8.171918392181396484e-01,8.164061903953552246e-01,8.156877756118774414e-01,8.149053454399108887e-01,8.144836425781250000e-01,8.137007951736450195e-01,8.129783868789672852e-01,8.122588992118835449e-01,8.119088411331176758e-01,8.112584352493286133e-01,8.108429312705993652e-01,8.104001879692077637e-01,8.100330233573913574e-01,8.093357682228088379e-01,8.088002800941467285e-01,8.082644343376159668e-01,8.080473542213439941e-01,8.075363039970397949e-01,8.071559667587280273e-01,8.066946864128112793e-01,8.069931864738464355e-01,8.070147037506103516e-01,8.073343634605407715e-01,8.074426651000976562e-01,8.077909946441650391e-01,8.083589673042297363e-01,8.088594079017639160e-01,8.091755509376525879e-01,8.097105622291564941e-01,8.104882836341857910e-01,8.111305236816406250e-01,8.119303584098815918e-01,8.124146461486816406e-01,8.131356239318847656e-01,8.137207627296447754e-01
8.305141329765319824e-01,8.303814530372619629e-01,8.302643299102783203e-01,8.301469087600708008e-01,8.300002217292785645e-01,8.299139142036437988e-01,8.297049999237060547e-01,8.296667933464050293e-01,8.295620083808898926e-01,8.294753432273864746e-01,8.292637467384338379e-01,8.291888236999511719e-01,8.290299773216247559e-01,8.289492726325988770e-01,8.287938833236694336e-01,8.286833167076110840e-01,8.285446166992187500e-01,8.283433318138122559e-01,8.282260298728942871e-01,8.281075954437255859e-01,8.280038237571716309e-01,8.279297351837158203e-01,8.277519345283508301e-01,8.276528716087341309e-01,8.274810910224914551e-01,8.273501396179199219e-01,8.273434638977050781e-01,8.272733688354492188e-01,8.272086381912231445e-01,8.271357417106628418e-01,8.270376324653625488e-01,8.269562125205993652e-01,8.269179463386535645e-01,8.268582224845886230e-01,8.268716335296630859e-01,8.268002867698669434e-01,8.267729878425598145e-01,8.267896771430969238e-01,8.268416523933410645e-01,8.268070816993713379e-01,8.268729448318481445e-01,8.269603252410888672e-01,8.270276784896850586e-01,8.271145224571228027e-01,8.273169398307800293e-01,8.274189829826354980e-01,8.275852203369140625e-01,8.276629447937011719e-01,8.278113603591918945e-01,8.279264569282531738e-01,8.279767036437988281e-01,8.280101418495178223e-01,8.281100988388061523e-01,8.281344771385192871e-01,8.280658125877380371e-01,8.280602693557739258e-01,8.279199004173278809e-01,8.278849720954895020e-01,8.278086185455322266e-01,8.277997970581054688e-01,8.276454806327819824e-01,8.274403810501098633e-01,8.272576928138732910e-01,8.270704746246337891e-01,8.268937468528747559e-01,8.266760110855102539e-01,8.262987732887268066e-01,8.261324763298034668e-01,8.256998658180236816e-01,8.252834081649780273e-01,8.248240947723388672e-01,8.244307637214660645e-01,8.238685131072998047e-01,8.232869505882263184e-01,8.224931955337524414e-01,8.219445943832397461e-01,8.211615085601806641e-01,8.205452561378479004e-01,8.195961713790893555e-01,8.189141154289245605e-01,8.182746171951293945e-01,8.174657821655273438e-01,8.164734840393066406e-01,8.158081769943237305e-01,8.151085376739501953e-01,8.144945502281188965e-01,8.136610388755798340e-01,8.129913210868835449e-01,8.123682737350463867e-01,8.118399381637573242e-01,8.109397292137145996e-01,8.103901147842407227e-01,8.100199699401855469e-01,8.095706105232238770e-01,8.090322017669677734e-01,8.086131811141967773e-01,8.081457018852233887e-01,8.075667619705200195e-01,8.069648146629333496e-01,8.064641952514648438e-01,8.062359690666198730e-01,8.058295249938964844e-01,8.054258227348327637e-01,8.050378561019897461e-01,8.051080703735351562e-01,8.052153587341308594e-01,8.055773377418518066e-01,8.057200908660888672e-01,8.059522509574890137e-01,8.064835667610168457e-01,8.070881366729736328e-01,8.073946237564086914e-01,8.079371452331542969e-01,8.086400628089904785e-01,8.093744516372680664e-01,8.100145459175109863e-01,8.105533719062805176e-01,8.112071752548217773e-01,8.117858767509460449e-01
8.282538652420043945e-01,8.281602263450622559e-01,8.280715346336364746e-01,8.279331326484680176e-01,8.277959227561950684e-01,8.277568817138671875e-01,8.275338411331176758e-01,8.273993134498596191e-01,8.273040056228637695e-01,8.271755576133728027e-01,8.270896673202514648e-01,8.268764615058898926e-01,8.268052339553833008e-01,8.266724348068237305e-01,8.264948129653930664e-01,8.263174891471862793e-01,8.262411355972290039e-01,8.261613845825195312e-01,8.260862231254577637e-01,8.258528113365173340e-01,8.258377313613891602e-01,8.256938457489013672e-01,8.255879282951354980e-01,8.253907561302185059e-01,8.252273797988891602e-01,8.251969218254089355e-01,8.250678777694702148e-01,8.249333500862121582e-01,8.248933553695678711e-01,8.248062729835510254e-01,8.247620463371276855e-01,8.246512413024902344e-01,8.246127963066101074e-01,8.246255517005920410e-01,8.245289325714111328e-01,8.244644403457641602e-01,8.244727849960327148e-01,8.245469331741333008e-01,8.244701623916625977e-01,8.244332075119018555e-01,8.244960904121398926e-01,8.245773911476135254e-01,8.247459530830383301e-01,8.248198628425598145e-01,8.249549269676208496e-01,8.250873088836669922e-01,8.251298666000366211e-01,8.252074122428894043e-01,8.253262639045715332e-01,8.254434466361999512e-01,8.255175352096557617e-01,8.257008790969848633e-01,8.256984353065490723e-01,8.257213234901428223e-01,8.256950378417968750e-01,8.256545662879943848e-01,8.255996704101562500e-01,8.255122900009155273e-01,8.254771828651428223e-01,8.254099488258361816e-01,8.251827359199523926e-01,8.250861763954162598e-01,8.249263167381286621e-01,8.247126936912536621e-01,8.245647549629211426e-01,8.242666125297546387e-01,8.239653110504150391e-01,8.236648440361022949e-01,8.233860135078430176e-01,8.229912519454956055e-01,8.225901126861572266e-01,8.221178054809570312e-01,8.216497302055358887e-01,8.209171891212463379e-01,8.202976584434509277e-01,8.196880221366882324e-01,8.190404176712036133e-01,8.182978630065917969e-01,8.175812959671020508e-01,8.170020580291748047e-01,8.164235949516296387e-01,8.155006170272827148e-01,8.147076368331909180e-01,8.138412833213806152e-01,8.133726119995117188e-01,8.126447200775146484e-01,8.118910789489746094e-01,8.111447691917419434e-01,8.106920719146728516e-01,8.100446462631225586e-01,8.093236684799194336e-01,8.086957335472106934e-01,8.083878755569458008e-01,8.079113364219665527e-01,8.074038624763488770e-01,8.069449663162231445e-01,8.066232204437255859e-01,8.060294985771179199e-01,8.053968548774719238e-01,8.049067258834838867e-01,8.047307729721069336e-01,8.042180538177490234e-01,8.039206266403198242e-01,8.034355640411376953e-01,8.036726117134094238e-01,8.037561774253845215e-01,8.040819764137268066e-01,8.042049407958984375e-01,8.045372962951660156e-01,8.050473332405090332e-01,8.054366111755371094e-01,8.058795928955078125e-01,8.063159584999084473e-01,8.070178031921386719e-01,8.077540993690490723e-01,8.084063529968261719e-01,8.088098764419555664e-01,8.095875978469848633e-01,8.101112246513366699e-01
8.254347443580627441e-01,8.253293633460998535e-01,8.251354098320007324e-01,8.250020146369934082e-01,8.249370455741882324e-01,8.248488306999206543e-01,8.246526718139648438e-01,8.244935870170593262e-01,8.244433403015136719e-01,8.242773413658142090e-01,8.240950107574462891e-01,8.239596486091613770e-01,8.238593935966491699e-01,8.238069415092468262e-01,8.235271573066711426e-01,8.234292268753051758e-01,8.233530521392822266e-01,8.232238888740539551e-01,8.231428861618041992e-01,8.229879140853881836e-01,8.228753209114074707e-01,8.227260112762451172e-01,8.225452303886413574e-01,8.223879337310791016e-01,8.222795128822326660e-01,8.222500085830688477e-01,8.221716284751892090e-01,8.219686746597290039e-01,8.218677043914794922e-01,8.217857480049133301e-01,8.217138648033142090e-01,8.216531872749328613e-01,8.216074705123901367e-01,8.215029239654541016e-01,8.215324878692626953e-01,8.214384317398071289e-01,8.214471340179443359e-01,8.214701414108276367e-01,8.214588761329650879e-01,8.214172124862670898e-01,8.214157223701477051e-01,8.214997053146362305e-01,8.216238617897033691e-01,8.217203021049499512e-01,8.217798471450805664e-01,8.218553662300109863e-01,8.219753503799438477e-01,8.221575021743774414e-01,8.222889900207519531e-01,8.222746253013610840e-01,8.224813342094421387e-01,8.225306868553161621e-01,8.225784897804260254e-01,8.226107954978942871e-01,8.225259184837341309e-01,8.225262761116027832e-01,8.224728703498840332e-01,8.224262595176696777e-01,8.222905993461608887e-01,8.223228454589843750e-01,8.221423625946044922e-01,8.219507932662963867e-01,8.218739032745361328e-01,8.216801285743713379e-01,8.214682340621948242e-01,8.212342262268066406e-01,8.209285736083984375e-01,8.207487463951110840e-01,8.203566670417785645e-01,8.200149536132812500e-01,8.195465207099914551e-01,8.192188739776611328e-01,8.186867833137512207e-01,8.181376457214355469e-01,8.176702857017517090e-01,8.170726299285888672e-01,8.164429068565368652e-01,8.158359527587890625e-01,8.151049613952636719e-01,8.145514726638793945e-01,8.139451146125793457e-01,8.131474256515502930e-01,8.123213052749633789e-01,8.115819096565246582e-01,8.109884858131408691e-01,8.103644251823425293e-01,8.096743226051330566e-01,8.089811801910400391e-01,8.085778355598449707e-01,8.079959154129028320e-01,8.073034882545471191e-01,8.067122697830200195e-01,8.063564300537109375e-01,8.059526085853576660e-01,8.054010868072509766e-01,8.049492835998535156e-01,8.045686483383178711e-01,8.041439652442932129e-01,8.036160469055175781e-01,8.030396103858947754e-01,8.027868270874023438e-01,8.024365901947021484e-01,8.021083474159240723e-01,8.016999363899230957e-01,8.018357753753662109e-01,8.019782900810241699e-01,8.022794127464294434e-01,8.023863434791564941e-01,8.027470707893371582e-01,8.032318949699401855e-01,8.037235140800476074e-01,8.040392994880676270e-01,8.043739199638366699e-01,8.050814270973205566e-01,8.058326244354248047e-01,8.063771128654479980e-01,8.067912459373474121e-01,8.074109554290771484e-01,8.079952001571655273e-01
8.232202529907226562e-01,8.230916857719421387e-01,8.228870630264282227e-01,8.227741122245788574e-01,8.227160573005676270e-01,8.225553035736083984e-01,8.224192261695861816e-01,8.222963809967041016e-01,8.222792744636535645e-01,8.220919370651245117e-01,8.218944072723388672e-01,8.218509554862976074e-01,8.217877745628356934e-01,8.216245174407958984e-01,8.213949799537658691e-01,8.213159441947937012e-01,8.212361931800842285e-01,8.210247159004211426e-01,8.209234476089477539e-01,8.208224773406982422e-01,8.207249641418457031e-01,8.206136226654052734e-01,8.204990029335021973e-01,8.203257322311401367e-01,8.202030658721923828e-01,8.200587630271911621e-01,8.199339509010314941e-01,8.198384046554565430e-01,8.197640776634216309e-01,8.196361660957336426e-01,8.195955753326416016e-01,8.195695877075195312e-01,8.195531964302062988e-01,8.194439411163330078e-01,8.194629549980163574e-01,8.194404840469360352e-01,8.194221258163452148e-01,8.193838000297546387e-01,8.193857073783874512e-01,8.192933797836303711e-01,8.193656206130981445e-01,8.193859457969665527e-01,8.195651173591613770e-01,8.196274042129516602e-01,8.197305798530578613e-01,8.198223114013671875e-01,8.198697566986083984e-01,8.200300335884094238e-01,8.200814127922058105e-01,8.201431035995483398e-01,8.202798962593078613e-01,8.204019069671630859e-01,8.203717470169067383e-01,8.203278183937072754e-01,8.203160762786865234e-01,8.203401565551757812e-01,8.203153014183044434e-01,8.202309012413024902e-01,8.201107978820800781e-01,8.200414180755615234e-01,8.199937343597412109e-01,8.197166323661804199e-01,8.196719288825988770e-01,8.196072578430175781e-01,8.194208741188049316e-01,8.191473484039306641e-01,8.188425302505493164e-01,8.187289237976074219e-01,8.184213638305664062e-01,8.180317282676696777e-01,8.175955414772033691e-01,8.172382116317749023e-01,8.168501257896423340e-01,8.162806630134582520e-01,8.156570792198181152e-01,8.150563240051269531e-01,8.145903348922729492e-01,8.139344453811645508e-01,8.131667375564575195e-01,8.125563859939575195e-01,8.120198845863342285e-01,8.111690282821655273e-01,8.105032444000244141e-01,8.097957968711853027e-01,8.092932701110839844e-01,8.086568713188171387e-01,8.078540563583374023e-01,8.072878718376159668e-01,8.069155216217041016e-01,8.062198758125305176e-01,8.056234121322631836e-01,8.050464987754821777e-01,8.047128319740295410e-01,8.041578531265258789e-01,8.037526607513427734e-01,8.032993674278259277e-01,8.030170202255249023e-01,8.024350404739379883e-01,8.020341992378234863e-01,8.014013767242431641e-01,8.012149333953857422e-01,8.008589148521423340e-01,8.005008101463317871e-01,8.001770377159118652e-01,8.003790378570556641e-01,8.004801869392395020e-01,8.007755279541015625e-01,8.008840680122375488e-01,8.011406064033508301e-01,8.016023039817810059e-01,8.021141886711120605e-01,8.023906350135803223e-01,8.028233647346496582e-01,8.035365939140319824e-01,8.041681647300720215e-01,8.046888113021850586e-01,8.049630522727966309e-01,8.057912588119506836e-01,8.062767386436462402e-01
8.206927776336669922e-01,8.205739259719848633e-01,8.203872442245483398e-01,8.202910423278808594e-01,8.202196955680847168e-01,8.200132846832275391e-01,8.199543952941894531e-01,8.198234438896179199e-01,8.197301626205444336e-01,8.195427656173706055e-01,8.193995952606201172e-01,8.192620873451232910e-01,8.191908597946166992e-01,8.190395236015319824e-01,8.189195394515991211e-01,8.188199996948242188e-01,8.186122775077819824e-01,8.184114694595336914e-01,8.183331489562988281e-01,8.182324767112731934e-01,8.181143999099731445e-01,8.179806470870971680e-01,8.178766369819641113e-01,8.177713751792907715e-01,8.176595568656921387e-01,8.175135850906372070e-01,8.174068331718444824e-01,8.173182606697082520e-01,8.171966671943664551e-01,8.171591162681579590e-01,8.171344995498657227e-01,8.169489502906799316e-01,8.168687224388122559e-01,8.169228434562683105e-01,8.169379234313964844e-01,8.167268633842468262e-01,8.166785836219787598e-01,8.167600631713867188e-01,8.167452216148376465e-01,8.166288137435913086e-01,8.166966438293457031e-01,8.167427778244018555e-01,8.169064521789550781e-01,8.169708847999572754e-01,8.170403242111206055e-01,8.170533776283264160e-01,8.171793818473815918e-01,8.173519372940063477e-01,8.174083232879638672e-01,8.174991607666015625e-01,8.176381587982177734e-01,8.176766037940979004e-01,8.176456689834594727e-01,8.176532387733459473e-01,8.176794648170471191e-01,8.176428079605102539e-01,8.175839185714721680e-01,8.175860047340393066e-01,8.173825740814208984e-01,8.173872828483581543e-01,8.173483014106750488e-01,8.171337246894836426e-01,8.170123100280761719e-01,8.169440031051635742e-01,8.167330622673034668e-01,8.165482282638549805e-01,8.162397742271423340e-01,8.161605000495910645e-01,8.157167434692382812e-01,8.154494166374206543e-01,8.150320053100585938e-01,8.148934245109558105e-01,8.143483400344848633e-01,8.138028383255004883e-01,8.130731582641601562e-01,8.125995397567749023e-01,8.120341300964355469e-01,8.114974498748779297e-01,8.107221722602844238e-01,8.102215528488159180e-01,8.097283244132995605e-01,8.091535568237304688e-01,8.082762956619262695e-01,8.076938986778259277e-01,8.071695566177368164e-01,8.064923882484436035e-01,8.057850003242492676e-01,8.052900433540344238e-01,8.048967123031616211e-01,8.042416572570800781e-01,8.035545945167541504e-01,8.031386137008666992e-01,8.027474284172058105e-01,8.023049831390380859e-01,8.018271923065185547e-01,8.014501333236694336e-01,8.011834025382995605e-01,8.006885051727294922e-01,8.000506758689880371e-01,7.996945381164550781e-01,7.995388507843017578e-01,7.991056442260742188e-01,7.988814711570739746e-01,7.984703183174133301e-01,7.986414432525634766e-01,7.987673878669738770e-01,7.990057468414306641e-01,7.991446852684020996e-01,7.993817925453186035e-01,7.998462915420532227e-01,8.003429174423217773e-01,8.006849288940429688e-01,8.010747432708740234e-01,8.016354441642761230e-01,8.023821711540222168e-01,8.027647137641906738e-01,8.032323718070983887e-01,8.038140535354614258e-01,8.043789267539978027e-01
8.187306523323059082e-01,8.185946941375732422e-01,8.184956312179565430e-01,8.182044029235839844e-01,8.181218504905700684e-01,8.180085420608520508e-01,8.179456591606140137e-01,8.178297281265258789e-01,8.177049756050109863e-01,8.175696730613708496e-01,8.174021244049072266e-01,8.171921372413635254e-01,8.171714544296264648e-01,8.169785141944885254e-01,8.169002532958984375e-01,8.167181015014648438e-01,8.166137337684631348e-01,8.164937496185302734e-01,8.163694143295288086e-01,8.161721229553222656e-01,8.160616755485534668e-01,8.159552812576293945e-01,8.158996105194091797e-01,8.156642913818359375e-01,8.156021237373352051e-01,8.155020475387573242e-01,8.153505921363830566e-01,8.152323365211486816e-01,8.151880502700805664e-01,8.151224255561828613e-01,8.150241971015930176e-01,8.149162530899047852e-01,8.149178028106689453e-01,8.148891925811767578e-01,8.148095607757568359e-01,8.147310614585876465e-01,8.146553635597229004e-01,8.146669864654541016e-01,8.146804571151733398e-01,8.146337270736694336e-01,8.146395087242126465e-01,8.146876096725463867e-01,8.148230910301208496e-01,8.149306178092956543e-01,8.148940205574035645e-01,8.150189518928527832e-01,8.151177167892456055e-01,8.151801228523254395e-01,8.153710365295410156e-01,8.154897689819335938e-01,8.155373930931091309e-01,8.156049847602844238e-01,8.155293464660644531e-01,8.155980110168457031e-01,8.155804872512817383e-01,8.155421614646911621e-01,8.154700994491577148e-01,8.154253959655761719e-01,8.152958750724792480e-01,8.152871131896972656e-01,8.153270483016967773e-01,8.151093125343322754e-01,8.149378299713134766e-01,8.148580193519592285e-01,8.146126866340637207e-01,8.143657445907592773e-01,8.142826557159423828e-01,8.140920400619506836e-01,8.137797713279724121e-01,8.132912516593933105e-01,8.130414485931396484e-01,8.127316236495971680e-01,8.123694062232971191e-01,8.117567300796508789e-01,8.112552165985107422e-01,8.107401132583618164e-01,8.102838993072509766e-01,8.095877170562744141e-01,8.089575171470642090e-01,8.083968758583068848e-01,8.079791665077209473e-01,8.072658181190490723e-01,8.066152334213256836e-01,8.059638738632202148e-01,8.056238293647766113e-01,8.047645092010498047e-01,8.040918111801147461e-01,8.035967946052551270e-01,8.032823204994201660e-01,8.025381565093994141e-01,8.021113276481628418e-01,8.015031218528747559e-01,8.012483716011047363e-01,8.007849454879760742e-01,8.003808259963989258e-01,7.999417781829833984e-01,7.997036576271057129e-01,7.991619706153869629e-01,7.987404465675354004e-01,7.982785701751708984e-01,7.981467247009277344e-01,7.977336645126342773e-01,7.975335717201232910e-01,7.970787882804870605e-01,7.973524928092956543e-01,7.974749803543090820e-01,7.977718114852905273e-01,7.978102564811706543e-01,7.980956435203552246e-01,7.985818982124328613e-01,7.989740967750549316e-01,7.992451190948486328e-01,7.995517849922180176e-01,8.003137111663818359e-01,8.008789420127868652e-01,8.014108538627624512e-01,8.016372323036193848e-01,8.023414015769958496e-01,8.027468323707580566e-01
8.159840106964111328e-01,8.158698081970214844e-01,8.156208992004394531e-01,8.154115080833435059e-01,8.154747486114501953e-01,8.153451085090637207e-01,8.151308894157409668e-01,8.150361776351928711e-01,8.150010108947753906e-01,8.148469328880310059e-01,8.146444559097290039e-01,8.144832849502563477e-01,8.144872188568115234e-01,8.143028616905212402e-01,8.141564726829528809e-01,8.140267133712768555e-01,8.138390779495239258e-01,8.137812614440917969e-01,8.135627508163452148e-01,8.135203719139099121e-01,8.133359551429748535e-01,8.132188916206359863e-01,8.130002617835998535e-01,8.128470182418823242e-01,8.127481937408447266e-01,8.126505613327026367e-01,8.125692009925842285e-01,8.124946355819702148e-01,8.124158382415771484e-01,8.123268485069274902e-01,8.122406005859375000e-01,8.121960759162902832e-01,8.121797442436218262e-01,8.121005296707153320e-01,8.120114207267761230e-01,8.119109869003295898e-01,8.118768334388732910e-01,8.118634819984436035e-01,8.118506073951721191e-01,8.117175102233886719e-01,8.118307590484619141e-01,8.118627667427062988e-01,8.119199275970458984e-01,8.119998574256896973e-01,8.120899200439453125e-01,8.121983408927917480e-01,8.122491836547851562e-01,8.123587965965270996e-01,8.123977780342102051e-01,8.125714063644409180e-01,8.126822113990783691e-01,8.126568198204040527e-01,8.126837611198425293e-01,8.128194212913513184e-01,8.127777576446533203e-01,8.127173781394958496e-01,8.126570582389831543e-01,8.126344084739685059e-01,8.125362396240234375e-01,8.124899864196777344e-01,8.124378919601440430e-01,8.123393654823303223e-01,8.122233152389526367e-01,8.120710849761962891e-01,8.118417263031005859e-01,8.117003440856933594e-01,8.114570975303649902e-01,8.112927675247192383e-01,8.110036253929138184e-01,8.107607364654541016e-01,8.103641867637634277e-01,8.100635409355163574e-01,8.097277879714965820e-01,8.092220425605773926e-01,8.086891174316406250e-01,8.082969188690185547e-01,8.076940178871154785e-01,8.072361946105957031e-01,8.066276311874389648e-01,8.060786128044128418e-01,8.056205511093139648e-01,8.049995303153991699e-01,8.042830824851989746e-01,8.038114309310913086e-01,8.033466935157775879e-01,8.026521801948547363e-01,8.020112514495849609e-01,8.014267086982727051e-01,8.011085391044616699e-01,8.005751371383666992e-01,8.000983595848083496e-01,7.995533347129821777e-01,7.993305325508117676e-01,7.988516688346862793e-01,7.984124422073364258e-01,7.980868816375732422e-01,7.978481054306030273e-01,7.974160313606262207e-01,7.969893217086791992e-01,7.965660095214843750e-01,7.962861657142639160e-01,7.960342168807983398e-01,7.958639264106750488e-01,7.954370379447937012e-01,7.956532239913940430e-01,7.958678007125854492e-01,7.960575222969055176e-01,7.960815429687500000e-01,7.964594960212707520e-01,7.968118190765380859e-01,7.972429394721984863e-01,7.974859476089477539e-01,7.979279160499572754e-01,7.984370589256286621e-01,7.989526987075805664e-01,7.993052601814270020e-01,7.997195124626159668e-01,8.002685904502868652e-01,8.007160425186157227e-01
8.137596249580383301e-01,8.135998249053955078e-01,8.134650588035583496e-01,8.132675290107727051e-01,8.132645487785339355e-01,8.131089806556701660e-01,8.129894137382507324e-01,8.128488063812255859e-01,8.127734661102294922e-01,8.126277923583984375e-01,8.124256730079650879e-01,8.123885393142700195e-01,8.122465610504150391e-01,8.121281266212463379e-01,8.120524883270263672e-01,8.118802309036254883e-01,8.117896318435668945e-01,8.116051554679870605e-01,8.113914132118225098e-01,8.112640380859375000e-01,8.111847043037414551e-01,8.110356330871582031e-01,8.109253048896789551e-01,8.107132315635681152e-01,8.106569051742553711e-01,8.105353713035583496e-01,8.103991150856018066e-01,8.102542161941528320e-01,8.102219700813293457e-01,8.102065324783325195e-01,8.101829290390014648e-01,8.100513219833374023e-01,8.100929260253906250e-01,8.099961876869201660e-01,8.099020123481750488e-01,8.097853064537048340e-01,8.098303079605102539e-01,8.098270297050476074e-01,8.097029924392700195e-01,8.096898794174194336e-01,8.097805976867675781e-01,8.097546696662902832e-01,8.098190426826477051e-01,8.098992705345153809e-01,8.099418282508850098e-01,8.099924325942993164e-01,8.101654052734375000e-01,8.102658987045288086e-01,8.103081583976745605e-01,8.104152083396911621e-01,8.104258179664611816e-01,8.105743527412414551e-01,8.105736970901489258e-01,8.105992674827575684e-01,8.105863928794860840e-01,8.105276823043823242e-01,8.105036020278930664e-01,8.103848695755004883e-01,8.103283047676086426e-01,8.103246688842773438e-01,8.102354407310485840e-01,8.102076649665832520e-01,8.100560903549194336e-01,8.098570108413696289e-01,8.097426891326904297e-01,8.096079826354980469e-01,8.093955516815185547e-01,8.091180324554443359e-01,8.088948726654052734e-01,8.086022734642028809e-01,8.082139492034912109e-01,8.079620003700256348e-01,8.076086044311523438e-01,8.070552945137023926e-01,8.066225051879882812e-01,8.061273694038391113e-01,8.056872487068176270e-01,8.051442503929138184e-01,8.045701980590820312e-01,8.040043115615844727e-01,8.035360574722290039e-01,8.028709292411804199e-01,8.023311495780944824e-01,8.017339706420898438e-01,8.013645410537719727e-01,8.006845712661743164e-01,7.999886870384216309e-01,7.994402647018432617e-01,7.991669774055480957e-01,7.985830903053283691e-01,7.982982397079467773e-01,7.977133393287658691e-01,7.975364327430725098e-01,7.969637513160705566e-01,7.966168522834777832e-01,7.962204813957214355e-01,7.961027622222900391e-01,7.956776022911071777e-01,7.953004240989685059e-01,7.947942018508911133e-01,7.946950793266296387e-01,7.944295406341552734e-01,7.941506505012512207e-01,7.937803268432617188e-01,7.940317392349243164e-01,7.941830754280090332e-01,7.943005561828613281e-01,7.944210171699523926e-01,7.947361469268798828e-01,7.951065897941589355e-01,7.954536080360412598e-01,7.957190871238708496e-01,7.960781455039978027e-01,7.965457439422607422e-01,7.970287203788757324e-01,7.974600195884704590e-01,7.977701425552368164e-01,7.984291315078735352e-01,7.988574504852294922e-01
8.113037347793579102e-01,8.112255930900573730e-01,8.110383152961730957e-01,8.109762072563171387e-01,8.108063340187072754e-01,8.107196092605590820e-01,8.105674386024475098e-01,8.105115890502929688e-01,8.103559017181396484e-01,8.101333975791931152e-01,8.100984692573547363e-01,8.099706768989562988e-01,8.097966909408569336e-01,8.097262978553771973e-01,8.096038103103637695e-01,8.093735575675964355e-01,8.092507719993591309e-01,8.092009425163269043e-01,8.090497255325317383e-01,8.089132308959960938e-01,8.087041974067687988e-01,8.086688518524169922e-01,8.085001707077026367e-01,8.082982301712036133e-01,8.082601428031921387e-01,8.081165552139282227e-01,8.080356717109680176e-01,8.077884912490844727e-01,8.078126311302185059e-01,8.077497482299804688e-01,8.076601028442382812e-01,8.075703382492065430e-01,8.075248003005981445e-01,8.075149059295654297e-01,8.073781132698059082e-01,8.072435855865478516e-01,8.073120713233947754e-01,8.072994351387023926e-01,8.072054386138916016e-01,8.071923851966857910e-01,8.071618080139160156e-01,8.072695136070251465e-01,8.072524070739746094e-01,8.072950243949890137e-01,8.073588013648986816e-01,8.074210882186889648e-01,8.075752258300781250e-01,8.076310753822326660e-01,8.077201247215270996e-01,8.077686429023742676e-01,8.078716397285461426e-01,8.079413175582885742e-01,8.079314231872558594e-01,8.079779148101806641e-01,8.080495595932006836e-01,8.079900741577148438e-01,8.079609274864196777e-01,8.078769445419311523e-01,8.077822923660278320e-01,8.076755404472351074e-01,8.077465891838073730e-01,8.076254725456237793e-01,8.074197769165039062e-01,8.073418736457824707e-01,8.071706891059875488e-01,8.070036768913269043e-01,8.067166805267333984e-01,8.065854310989379883e-01,8.063853979110717773e-01,8.061442375183105469e-01,8.056986331939697266e-01,8.055288195610046387e-01,8.051823377609252930e-01,8.046846389770507812e-01,8.042569756507873535e-01,8.038269877433776855e-01,8.033757805824279785e-01,8.029292821884155273e-01,8.022962212562561035e-01,8.017885088920593262e-01,8.013230562210083008e-01,8.007380366325378418e-01,8.001585006713867188e-01,7.995919585227966309e-01,7.991632223129272461e-01,7.986375093460083008e-01,7.979760766029357910e-01,7.974966168403625488e-01,7.972106337547302246e-01,7.967169284820556641e-01,7.962566614151000977e-01,7.957828640937805176e-01,7.956128716468811035e-01,7.951671481132507324e-01,7.948645949363708496e-01,7.945328354835510254e-01,7.943757772445678711e-01,7.939201593399047852e-01,7.935201525688171387e-01,7.932028770446777344e-01,7.931832671165466309e-01,7.928690314292907715e-01,7.926754355430603027e-01,7.923337817192077637e-01,7.924740314483642578e-01,7.925146818161010742e-01,7.927073240280151367e-01,7.928184866905212402e-01,7.930539846420288086e-01,7.934522628784179688e-01,7.938668727874755859e-01,7.940588593482971191e-01,7.945300936698913574e-01,7.950031161308288574e-01,7.954825162887573242e-01,7.958649992942810059e-01,7.961656451225280762e-01,7.967390418052673340e-01,7.971538901329040527e-01
8.092144131660461426e-01,8.091034889221191406e-01,8.090685009956359863e-01,8.088603615760803223e-01,8.088632822036743164e-01,8.086386322975158691e-01,8.085451126098632812e-01,8.084350228309631348e-01,8.083596229553222656e-01,8.081407546997070312e-01,8.080514669418334961e-01,8.078887462615966797e-01,8.077799081802368164e-01,8.077086806297302246e-01,8.075515627861022949e-01,8.074361681938171387e-01,8.073073625564575195e-01,8.071345090866088867e-01,8.069767951965332031e-01,8.067820668220520020e-01,8.067657351493835449e-01,8.067055344581604004e-01,8.064426183700561523e-01,8.062070608139038086e-01,8.061988353729248047e-01,8.060560226440429688e-01,8.059940338134765625e-01,8.058531284332275391e-01,8.057656884193420410e-01,8.057463765144348145e-01,8.056083321571350098e-01,8.055239319801330566e-01,8.055199384689331055e-01,8.053982257843017578e-01,8.053691983222961426e-01,8.051949739456176758e-01,8.052844405174255371e-01,8.052796721458435059e-01,8.051204681396484375e-01,8.050553798675537109e-01,8.051196932792663574e-01,8.051553964614868164e-01,8.052890896797180176e-01,8.051889538764953613e-01,8.052750229835510254e-01,8.053959608078002930e-01,8.054721355438232422e-01,8.055335283279418945e-01,8.056544661521911621e-01,8.056851625442504883e-01,8.057660460472106934e-01,8.058683872222900391e-01,8.058672547340393066e-01,8.059154748916625977e-01,8.059058785438537598e-01,8.058934807777404785e-01,8.057820796966552734e-01,8.057751059532165527e-01,8.056196570396423340e-01,8.056915402412414551e-01,8.056412935256958008e-01,8.054895997047424316e-01,8.053171038627624512e-01,8.052088618278503418e-01,8.051440119743347168e-01,8.049436807632446289e-01,8.046784400939941406e-01,8.045815825462341309e-01,8.043086528778076172e-01,8.039431571960449219e-01,8.037170767784118652e-01,8.034867048263549805e-01,8.031787276268005371e-01,8.027439713478088379e-01,8.023129105567932129e-01,8.017423748970031738e-01,8.014976978302001953e-01,8.008642196655273438e-01,8.003586530685424805e-01,7.998791933059692383e-01,7.995326519012451172e-01,7.988733649253845215e-01,7.983998656272888184e-01,7.977994084358215332e-01,7.975103855133056641e-01,7.968158721923828125e-01,7.964334487915039062e-01,7.958058118820190430e-01,7.956668138504028320e-01,7.950669527053833008e-01,7.947412133216857910e-01,7.942946553230285645e-01,7.941811084747314453e-01,7.936943769454956055e-01,7.932983636856079102e-01,7.929475307464599609e-01,7.928151488304138184e-01,7.923530936241149902e-01,7.919891476631164551e-01,7.915501594543457031e-01,7.914424538612365723e-01,7.910786867141723633e-01,7.909157276153564453e-01,7.906264066696166992e-01,7.908461689949035645e-01,7.908478975296020508e-01,7.911635041236877441e-01,7.910828590393066406e-01,7.913247346878051758e-01,7.917593717575073242e-01,7.922328114509582520e-01,7.923052310943603516e-01,7.926148176193237305e-01,7.933059930801391602e-01,7.936368584632873535e-01,7.941252589225769043e-01,7.943701148033142090e-01,7.949586510658264160e-01,7.953119277954101562e-01
8.065302371978759766e-01,8.064495921134948730e-01,8.062905073165893555e-01,8.061000704765319824e-01,8.060625195503234863e-01,8.059430122375488281e-01,8.057830929756164551e-01,8.056591749191284180e-01,8.055366873741149902e-01,8.054435849189758301e-01,8.052775263786315918e-01,8.051367402076721191e-01,8.050768971443176270e-01,8.049640059471130371e-01,8.048096299171447754e-01,8.047168850898742676e-01,8.045940399169921875e-01,8.044009804725646973e-01,8.042353987693786621e-01,8.041274547576904297e-01,8.040645718574523926e-01,8.040137290954589844e-01,8.036991953849792480e-01,8.036049008369445801e-01,8.035672903060913086e-01,8.034130930900573730e-01,8.032554388046264648e-01,8.031995296478271484e-01,8.030786514282226562e-01,8.030667304992675781e-01,8.029822111129760742e-01,8.028386831283569336e-01,8.028650879859924316e-01,8.028090596199035645e-01,8.026967644691467285e-01,8.026297092437744141e-01,8.026282191276550293e-01,8.024902343750000000e-01,8.024206161499023438e-01,8.024458885192871094e-01,8.024774193763732910e-01,8.024861812591552734e-01,8.025419116020202637e-01,8.025836944580078125e-01,8.026297092437744141e-01,8.027178049087524414e-01,8.028540015220642090e-01,8.029240369796752930e-01,8.029624223709106445e-01,8.030364513397216797e-01,8.031114935874938965e-01,8.031199574470520020e-01,8.031864166259765625e-01,8.031272292137145996e-01,8.032177090644836426e-01,8.031530976295471191e-01,8.031023740768432617e-01,8.029758334159851074e-01,8.029446601867675781e-01,8.029043078422546387e-01,8.028882145881652832e-01,8.027699589729309082e-01,8.026247620582580566e-01,8.025210499763488770e-01,8.024184107780456543e-01,8.022459745407104492e-01,8.019514083862304688e-01,8.018649816513061523e-01,8.016691207885742188e-01,8.014034628868103027e-01,8.010401129722595215e-01,8.007349371910095215e-01,8.004256486892700195e-01,8.001306653022766113e-01,7.996452450752258301e-01,7.991559505462646484e-01,7.988880872726440430e-01,7.984023094177246094e-01,7.978078126907348633e-01,7.973902225494384766e-01,7.970289587974548340e-01,7.964447736740112305e-01,7.960426807403564453e-01,7.955957651138305664e-01,7.951630353927612305e-01,7.946355938911437988e-01,7.941604256629943848e-01,7.936707139015197754e-01,7.934163212776184082e-01,7.929924726486206055e-01,7.926200628280639648e-01,7.922505736351013184e-01,7.919517755508422852e-01,7.916524410247802734e-01,7.912570238113403320e-01,7.908411026000976562e-01,7.906222343444824219e-01,7.902665138244628906e-01,7.898064255714416504e-01,7.893514037132263184e-01,7.892385125160217285e-01,7.889479994773864746e-01,7.889594435691833496e-01,7.885763049125671387e-01,7.886996865272521973e-01,7.889012098312377930e-01,7.890502810478210449e-01,7.890442013740539551e-01,7.892513275146484375e-01,7.897077202796936035e-01,7.899560928344726562e-01,7.900947928428649902e-01,7.905301451683044434e-01,7.910797595977783203e-01,7.913978099822998047e-01,7.917664051055908203e-01,7.920515537261962891e-01,7.924897670745849609e-01,7.929943799972534180e-01
8.043547272682189941e-01,8.043598532676696777e-01,8.040981888771057129e-01,8.039300441741943359e-01,8.039013743400573730e-01,8.038365840911865234e-01,8.036745786666870117e-01,8.035205006599426270e-01,8.034215569496154785e-01,8.033132553100585938e-01,8.031255602836608887e-01,8.029443621635437012e-01,8.029451370239257812e-01,8.027508258819580078e-01,8.027170300483703613e-01,8.025011420249938965e-01,8.024354577064514160e-01,8.022679686546325684e-01,8.021526336669921875e-01,8.020104765892028809e-01,8.019260764122009277e-01,8.018183708190917969e-01,8.016032576560974121e-01,8.014466166496276855e-01,8.014960885047912598e-01,8.013671636581420898e-01,8.012534379959106445e-01,8.011000752449035645e-01,8.010253310203552246e-01,8.010104894638061523e-01,8.007980585098266602e-01,8.006675839424133301e-01,8.007512688636779785e-01,8.007214069366455078e-01,8.006414771080017090e-01,8.005057573318481445e-01,8.004729747772216797e-01,8.004716038703918457e-01,8.004369735717773438e-01,8.003438711166381836e-01,8.004538416862487793e-01,8.004016876220703125e-01,8.004671931266784668e-01,8.004729747772216797e-01,8.006242513656616211e-01,8.006513118743896484e-01,8.007159829139709473e-01,8.007646799087524414e-01,8.007555603981018066e-01,8.009330034255981445e-01,8.009813427925109863e-01,8.010175228118896484e-01,8.010903596878051758e-01,8.010698556900024414e-01,8.010790348052978516e-01,8.010147213935852051e-01,8.009269833564758301e-01,8.008822202682495117e-01,8.008353710174560547e-01,8.008104562759399414e-01,8.007814884185791016e-01,8.006097674369812012e-01,8.004395365715026855e-01,8.003119826316833496e-01,8.002898097038269043e-01,8.000525832176208496e-01,7.998244166374206543e-01,7.997198104858398438e-01,7.994994521141052246e-01,7.991660833358764648e-01,7.989172339439392090e-01,7.985861301422119141e-01,7.983848452568054199e-01,7.979851961135864258e-01,7.975870966911315918e-01,7.970501184463500977e-01,7.967551350593566895e-01,7.962636947631835938e-01,7.958623766899108887e-01,7.954766154289245605e-01,7.952226996421813965e-01,7.945332527160644531e-01,7.941284775733947754e-01,7.935971021652221680e-01,7.933109402656555176e-01,7.927725911140441895e-01,7.923314571380615234e-01,7.917019128799438477e-01,7.915565967559814453e-01,7.910005450248718262e-01,7.906455993652343750e-01,7.901759743690490723e-01,7.900028824806213379e-01,7.895958423614501953e-01,7.891577482223510742e-01,7.887434363365173340e-01,7.886200547218322754e-01,7.882618308067321777e-01,7.878450155258178711e-01,7.873080372810363770e-01,7.873488068580627441e-01,7.870879769325256348e-01,7.870118021965026855e-01,7.866991758346557617e-01,7.869580984115600586e-01,7.870116233825683594e-01,7.870992422103881836e-01,7.871463894844055176e-01,7.875201702117919922e-01,7.878270745277404785e-01,7.880904674530029297e-01,7.882942557334899902e-01,7.886897325515747070e-01,7.890897393226623535e-01,7.895098328590393066e-01,7.899520397186279297e-01,7.901309728622436523e-01,7.906751036643981934e-01,7.910530567169189453e-01
8.019212484359741211e-01,8.017917275428771973e-01,8.016631603240966797e-01,8.015355467796325684e-01,8.014807105064392090e-01,8.012716174125671387e-01,8.011966347694396973e-01,8.009886741638183594e-01,8.009335994720458984e-01,8.007807731628417969e-01,8.006197810173034668e-01,8.004926443099975586e-01,8.005231022834777832e-01,8.003333210945129395e-01,8.001120090484619141e-01,8.000347018241882324e-01,7.999934554100036621e-01,7.997761964797973633e-01,7.996870875358581543e-01,7.996075153350830078e-01,7.994647622108459473e-01,7.994064092636108398e-01,7.991600632667541504e-01,7.990509867668151855e-01,7.990010380744934082e-01,7.988772988319396973e-01,7.987794280052185059e-01,7.986599802970886230e-01,7.986230850219726562e-01,7.986027002334594727e-01,7.984678149223327637e-01,7.984073162078857422e-01,7.983453869819641113e-01,7.982559204101562500e-01,7.981309890747070312e-01,7.981956005096435547e-01,7.982100844383239746e-01,7.980966567993164062e-01,7.980458736419677734e-01,7.979573607444763184e-01,7.980062365531921387e-01,7.979948520660400391e-01,7.980902194976806641e-01,7.981216311454772949e-01,7.981714606285095215e-01,7.981908321380615234e-01,7.982646226882934570e-01,7.983976006507873535e-01,7.984675765037536621e-01,7.985179424285888672e-01,7.985630631446838379e-01,7.985387444496154785e-01,7.985106110572814941e-01,7.986285090446472168e-01,7.986245751380920410e-01,7.986071109771728516e-01,7.984920740127563477e-01,7.984533905982971191e-01,7.983385920524597168e-01,7.983882427215576172e-01,7.982251644134521484e-01,7.981694340705871582e-01,7.980407476425170898e-01,7.979457974433898926e-01,7.977793216705322266e-01,7.976530194282531738e-01,7.974516153335571289e-01,7.972815036773681641e-01,7.970972061157226562e-01,7.968021035194396973e-01,7.964267134666442871e-01,7.962647676467895508e-01,7.959744334220886230e-01,7.956023216247558594e-01,7.951908111572265625e-01,7.948285937309265137e-01,7.945107817649841309e-01,7.940412759780883789e-01,7.935813665390014648e-01,7.931846380233764648e-01,7.928517460823059082e-01,7.923314571380615234e-01,7.918955087661743164e-01,7.914412021636962891e-01,7.911847233772277832e-01,7.906808853149414062e-01,7.901398539543151855e-01,7.895571589469909668e-01,7.893139123916625977e-01,7.889456152915954590e-01,7.884507179260253906e-01,7.880471348762512207e-01,7.879220843315124512e-01,7.875152826309204102e-01,7.872011065483093262e-01,7.868058681488037109e-01,7.866245508193969727e-01,7.864013910293579102e-01,7.859178185462951660e-01,7.855175137519836426e-01,7.855756878852844238e-01,7.853515148162841797e-01,7.852016687393188477e-01,7.849383354187011719e-01,7.850869894027709961e-01,7.851940393447875977e-01,7.853140830993652344e-01,7.853512763977050781e-01,7.856551408767700195e-01,7.859568595886230469e-01,7.862323522567749023e-01,7.864150404930114746e-01,7.867751717567443848e-01,7.871527075767517090e-01,7.876952886581420898e-01,7.880301475524902344e-01,7.881348133087158203e-01,7.886744737625122070e-01,7.891094088554382324e-01
8.000158667564392090e-01,7.999147772789001465e-01,7.997676134109497070e-01,7.996944189071655273e-01,7.995547056198120117e-01,7.994373440742492676e-01,7.993419766426086426e-01,7.991206645965576172e-01,7.990731596946716309e-01,7.989019751548767090e-01,7.988653779029846191e-01,7.986606955528259277e-01,7.986184358596801758e-01,7.985071539878845215e-01,7.983831763267517090e-01,7.982379198074340820e-01,7.982053756713867188e-01,7.979843616485595703e-01,7.979338169097900391e-01,7.977389693260192871e-01,7.977163195610046387e-01,7.975792884826660156e-01,7.973951101303100586e-01,7.972654104232788086e-01,7.972693443298339844e-01,7.972406148910522461e-01,7.971232533454895020e-01,7.969113588333129883e-01,7.969111800193786621e-01,7.968903183937072754e-01,7.967894673347473145e-01,7.966763973236083984e-01,7.966095805168151855e-01,7.966116070747375488e-01,7.965077757835388184e-01,7.964438199996948242e-01,7.964283823966979980e-01,7.963394522666931152e-01,7.963407635688781738e-01,7.962664961814880371e-01,7.963655591011047363e-01,7.963443994522094727e-01,7.963228225708007812e-01,7.964370846748352051e-01,7.965148687362670898e-01,7.965634465217590332e-01,7.966504096984863281e-01,7.966941595077514648e-01,7.967334389686584473e-01,7.968518733978271484e-01,7.969126701354980469e-01,7.968760132789611816e-01,7.968606352806091309e-01,7.968459725379943848e-01,7.968629598617553711e-01,7.967514395713806152e-01,7.967371344566345215e-01,7.967103123664855957e-01,7.966292500495910645e-01,7.965623140335083008e-01,7.964000701904296875e-01,7.963501214981079102e-01,7.962498068809509277e-01,7.961502075195312500e-01,7.960364222526550293e-01,7.958322167396545410e-01,7.956852316856384277e-01,7.955339550971984863e-01,7.952852249145507812e-01,7.950558662414550781e-01,7.946357727050781250e-01,7.943691611289978027e-01,7.942396402359008789e-01,7.937921285629272461e-01,7.933894991874694824e-01,7.929807305335998535e-01,7.927808165550231934e-01,7.922034263610839844e-01,7.917917966842651367e-01,7.912747263908386230e-01,7.910751104354858398e-01,7.905011177062988281e-01,7.901090979576110840e-01,7.896143794059753418e-01,7.894852757453918457e-01,7.888171076774597168e-01,7.883006930351257324e-01,7.877591252326965332e-01,7.876002788543701172e-01,7.871719598770141602e-01,7.868128418922424316e-01,7.862532138824462891e-01,7.861957550048828125e-01,7.857831120491027832e-01,7.855100631713867188e-01,7.850450277328491211e-01,7.849910259246826172e-01,7.846316099166870117e-01,7.841689586639404297e-01,7.838057875633239746e-01,7.838994860649108887e-01,7.836362123489379883e-01,7.835904955863952637e-01,7.834255099296569824e-01,7.835561037063598633e-01,7.836017012596130371e-01,7.837420105934143066e-01,7.838292717933654785e-01,7.840537428855895996e-01,7.843877673149108887e-01,7.847323417663574219e-01,7.849168181419372559e-01,7.850446701049804688e-01,7.855936288833618164e-01,7.859821319580078125e-01,7.864167094230651855e-01,7.864487171173095703e-01,7.870565652847290039e-01,7.874250411987304688e-01
