1.734109163284301758e+00,1.734343051910400391e+00,1.734480023384094238e+00,1.734701156616210938e+00,1.734253764152526855e+00,1.734340667724609375e+00,1.734889268875122070e+00,1.734919071197509766e+00,1.734898447990417480e+00,1.734905242919921875e+00,1.734973311424255371e+00,1.735447049140930176e+00,1.735516428947448730e+00,1.735343456268310547e+00,1.735544800758361816e+00,1.735124945640563965e+00,1.735256791114807129e+00,1.735146284103393555e+00,1.734777331352233887e+00,1.735033988952636719e+00,1.734641909599304199e+00,1.734448432922363281e+00,1.733913421630859375e+00,1.733396172523498535e+00,1.733208894729614258e+00,1.732437491416931152e+00,1.731475114822387695e+00,1.731183528900146484e+00,1.730767250061035156e+00,1.729755043983459473e+00,1.728667497634887695e+00,1.727982401847839355e+00,1.727353334426879883e+00,1.726602077484130859e+00,1.725864648818969727e+00,1.724283456802368164e+00,1.723491549491882324e+00,1.722650170326232910e+00,1.721497416496276855e+00,1.719997406005859375e+00,1.719141960144042969e+00,1.717646598815917969e+00,1.716553807258605957e+00,1.715054035186767578e+00,1.713928103446960449e+00,1.712425112724304199e+00,1.710946798324584961e+00,1.709725737571716309e+00,1.708136320114135742e+00,1.706681609153747559e+00,1.705059289932250977e+00,1.703676462173461914e+00,1.702136158943176270e+00,1.700376391410827637e+00,1.698643088340759277e+00,1.697107434272766113e+00,1.695464134216308594e+00,1.693891525268554688e+00,1.692405223846435547e+00,1.690523266792297363e+00,1.688768982887268066e+00,1.687390565872192383e+00,1.685823798179626465e+00,1.684096574783325195e+00,1.682441234588623047e+00,1.680915355682373047e+00,1.679451823234558105e+00,1.677816510200500488e+00,1.676076531410217285e+00,1.675209403038024902e+00,1.673822760581970215e+00,1.672496199607849121e+00,1.671064138412475586e+00,1.669612765312194824e+00,1.668213129043579102e+00,1.666467905044555664e+00,1.665293455123901367e+00,1.664260387420654297e+00,1.662681460380554199e+00,1.661241769790649414e+00,1.660094380378723145e+00,1.658430457115173340e+00,1.657346367835998535e+00,1.655979394912719727e+00,1.654305696487426758e+00,1.653058767318725586e+00,1.651646018028259277e+00,1.650697827339172363e+00,1.649447917938232422e+00,1.647682189941406250e+00,1.646430373191833496e+00,1.645200371742248535e+00,1.643782854080200195e+00,1.642471075057983398e+00,1.641006827354431152e+00,1.639963746070861816e+00,1.638344645500183105e+00,1.637072086334228516e+00,1.635160446166992188e+00,1.633986353874206543e+00,1.632492780685424805e+00,1.630803704261779785e+00,1.629048705101013184e+00,1.627523779869079590e+00,1.625823974609375000e+00,1.624342441558837891e+00,1.622722625732421875e+00,1.620751023292541504e+00,1.618964076042175293e+00,1.617113947868347168e+00,1.615602374076843262e+00,1.613564133644104004e+00,1.611835122108459473e+00,1.609764099121093750e+00,1.608536958694458008e+00,1.606531739234924316e+00,1.604838490486145020e+00,1.603031516075134277e+00,1.601594567298889160e+00
1.738803863525390625e+00,1.739425778388977051e+00,1.739090681076049805e+00,1.739606022834777832e+00,1.739586830139160156e+00,1.739674568176269531e+00,1.739597320556640625e+00,1.739991426467895508e+00,1.740232706069946289e+00,1.740205407142639160e+00,1.740046620368957520e+00,1.740228533744812012e+00,1.740577340126037598e+00,1.740550279617309570e+00,1.740572690963745117e+00,1.740200757980346680e+00,1.739961743354797363e+00,1.740543961524963379e+00,1.740226864814758301e+00,1.739909291267395020e+00,1.739526033401489258e+00,1.739450216293334961e+00,1.739080548286437988e+00,1.738703846931457520e+00,1.738297462463378906e+00,1.737800717353820801e+00,1.736843705177307129e+00,1.736501097679138184e+00,1.736072063446044922e+00,1.734788537025451660e+00,1.733818769454956055e+00,1.733203887939453125e+00,1.732477903366088867e+00,1.731569409370422363e+00,1.730730414390563965e+00,1.729733347892761230e+00,1.728636384010314941e+00,1.727441191673278809e+00,1.726485133171081543e+00,1.725657582283020020e+00,1.724259138107299805e+00,1.722920179367065430e+00,1.721822619438171387e+00,1.720331430435180664e+00,1.719217658042907715e+00,1.717673301696777344e+00,1.716210365295410156e+00,1.714819312095642090e+00,1.713563203811645508e+00,1.711807131767272949e+00,1.710346817970275879e+00,1.708623290061950684e+00,1.707201004028320312e+00,1.705636739730834961e+00,1.703811526298522949e+00,1.702348828315734863e+00,1.700910925865173340e+00,1.699071049690246582e+00,1.697515606880187988e+00,1.695999026298522949e+00,1.694172382354736328e+00,1.692866325378417969e+00,1.691143989562988281e+00,1.689753532409667969e+00,1.688244819641113281e+00,1.686439871788024902e+00,1.685167670249938965e+00,1.683811902999877930e+00,1.681905627250671387e+00,1.680623888969421387e+00,1.679398536682128906e+00,1.677949428558349609e+00,1.676622033119201660e+00,1.675257086753845215e+00,1.673814535140991211e+00,1.672148346900939941e+00,1.670965194702148438e+00,1.669776916503906250e+00,1.668286800384521484e+00,1.667166948318481445e+00,1.665812492370605469e+00,1.663950085639953613e+00,1.662638783454895020e+00,1.661179780960083008e+00,1.659635543823242188e+00,1.658334374427795410e+00,1.657266616821289062e+00,1.655739068984985352e+00,1.654392957687377930e+00,1.653127074241638184e+00,1.651401400566101074e+00,1.650325655937194824e+00,1.648784875869750977e+00,1.647849678993225098e+00,1.646340966224670410e+00,1.644922137260437012e+00,1.643758058547973633e+00,1.641891241073608398e+00,1.640491843223571777e+00,1.638704895973205566e+00,1.637555956840515137e+00,1.635824203491210938e+00,1.634121894836425781e+00,1.632923007011413574e+00,1.631707310676574707e+00,1.629655838012695312e+00,1.627705574035644531e+00,1.626129388809204102e+00,1.624033689498901367e+00,1.621966361999511719e+00,1.620492935180664062e+00,1.618687391281127930e+00,1.616867899894714355e+00,1.614733219146728516e+00,1.613072514533996582e+00,1.611181855201721191e+00,1.609432935714721680e+00,1.607436895370483398e+00,1.606109261512756348e+00
1.742487430572509766e+00,1.742651343345642090e+00,1.742651343345642090e+00,1.742816448211669922e+00,1.743026018142700195e+00,1.742822408676147461e+00,1.743239641189575195e+00,1.743100404739379883e+00,1.743047356605529785e+00,1.743081450462341309e+00,1.743476152420043945e+00,1.743940591812133789e+00,1.743979930877685547e+00,1.743991494178771973e+00,1.743726730346679688e+00,1.744081139564514160e+00,1.743694305419921875e+00,1.743885517120361328e+00,1.743844032287597656e+00,1.743663311004638672e+00,1.743221044540405273e+00,1.742971658706665039e+00,1.742605090141296387e+00,1.742072701454162598e+00,1.741762042045593262e+00,1.740942001342773438e+00,1.740596294403076172e+00,1.739995360374450684e+00,1.739389777183532715e+00,1.738575935363769531e+00,1.738019943237304688e+00,1.736850976943969727e+00,1.736045956611633301e+00,1.735159397125244141e+00,1.734258770942687988e+00,1.733492732048034668e+00,1.732707500457763672e+00,1.731059908866882324e+00,1.730291843414306641e+00,1.728956103324890137e+00,1.728135943412780762e+00,1.726345539093017578e+00,1.725544571876525879e+00,1.724585533142089844e+00,1.723055720329284668e+00,1.721614837646484375e+00,1.720347642898559570e+00,1.718670129776000977e+00,1.717650651931762695e+00,1.716032147407531738e+00,1.714486002922058105e+00,1.712553262710571289e+00,1.711342930793762207e+00,1.709621429443359375e+00,1.707648873329162598e+00,1.706517219543457031e+00,1.704619765281677246e+00,1.702854514122009277e+00,1.701531171798706055e+00,1.700010061264038086e+00,1.698426961898803711e+00,1.696582555770874023e+00,1.695263147354125977e+00,1.693766355514526367e+00,1.692365169525146484e+00,1.690652728080749512e+00,1.689442396163940430e+00,1.688078165054321289e+00,1.686409831047058105e+00,1.685103416442871094e+00,1.683626413345336914e+00,1.682246685028076172e+00,1.680730938911437988e+00,1.679158926010131836e+00,1.677893757820129395e+00,1.676174163818359375e+00,1.675334930419921875e+00,1.673897743225097656e+00,1.672333478927612305e+00,1.671010851860046387e+00,1.669915914535522461e+00,1.668208360671997070e+00,1.666988492012023926e+00,1.665705680847167969e+00,1.664073228836059570e+00,1.662358760833740234e+00,1.660912990570068359e+00,1.659836888313293457e+00,1.658412814140319824e+00,1.656865954399108887e+00,1.655385494232177734e+00,1.654239058494567871e+00,1.652782797813415527e+00,1.651259303092956543e+00,1.650025725364685059e+00,1.648774266242980957e+00,1.647400498390197754e+00,1.645652174949645996e+00,1.644390940666198730e+00,1.642928957939147949e+00,1.641887426376342773e+00,1.640227913856506348e+00,1.638517141342163086e+00,1.636962056159973145e+00,1.635118722915649414e+00,1.633501768112182617e+00,1.631937384605407715e+00,1.629821658134460449e+00,1.627972602844238281e+00,1.626233696937561035e+00,1.624666810035705566e+00,1.622834444046020508e+00,1.621278405189514160e+00,1.618968605995178223e+00,1.616916179656982422e+00,1.615039706230163574e+00,1.613272905349731445e+00,1.611491680145263672e+00,1.609543323516845703e+00
1.747292280197143555e+00,1.747298359870910645e+00,1.747882246971130371e+00,1.747826218605041504e+00,1.748169541358947754e+00,1.748242735862731934e+00,1.748226881027221680e+00,1.748856663703918457e+00,1.748820781707763672e+00,1.748866677284240723e+00,1.748739123344421387e+00,1.748985767364501953e+00,1.749247312545776367e+00,1.748942375183105469e+00,1.748975396156311035e+00,1.749226331710815430e+00,1.749246716499328613e+00,1.749042272567749023e+00,1.748898863792419434e+00,1.748746395111083984e+00,1.748883843421936035e+00,1.748299717903137207e+00,1.747666001319885254e+00,1.747644543647766113e+00,1.747178435325622559e+00,1.746678233146667480e+00,1.746052265167236328e+00,1.745473146438598633e+00,1.744772553443908691e+00,1.743907928466796875e+00,1.743089199066162109e+00,1.742656588554382324e+00,1.741793513298034668e+00,1.740940213203430176e+00,1.739666461944580078e+00,1.738739371299743652e+00,1.737691402435302734e+00,1.736852169036865234e+00,1.735347270965576172e+00,1.734083652496337891e+00,1.732843875885009766e+00,1.731976509094238281e+00,1.730779290199279785e+00,1.729804158210754395e+00,1.728345870971679688e+00,1.727105617523193359e+00,1.725551486015319824e+00,1.724499702453613281e+00,1.722987890243530273e+00,1.721494793891906738e+00,1.720460653305053711e+00,1.718518733978271484e+00,1.716924786567687988e+00,1.715630650520324707e+00,1.713532209396362305e+00,1.711858510971069336e+00,1.710251927375793457e+00,1.709013581275939941e+00,1.707094550132751465e+00,1.705283880233764648e+00,1.703498601913452148e+00,1.702040672302246094e+00,1.700795650482177734e+00,1.699356079101562500e+00,1.697785854339599609e+00,1.696192502975463867e+00,1.694906115531921387e+00,1.693781375885009766e+00,1.691851258277893066e+00,1.690636396408081055e+00,1.689107656478881836e+00,1.687657475471496582e+00,1.686349987983703613e+00,1.685033321380615234e+00,1.683604478836059570e+00,1.682153582572937012e+00,1.680718302726745605e+00,1.679584145545959473e+00,1.678183794021606445e+00,1.676630973815917969e+00,1.675317525863647461e+00,1.673628449440002441e+00,1.672366976737976074e+00,1.670878887176513672e+00,1.669743061065673828e+00,1.667895555496215820e+00,1.666598558425903320e+00,1.665354728698730469e+00,1.663907647132873535e+00,1.662487030029296875e+00,1.661157488822937012e+00,1.659247040748596191e+00,1.657968044281005859e+00,1.656454205513000488e+00,1.655464410781860352e+00,1.653721809387207031e+00,1.652266621589660645e+00,1.650966405868530273e+00,1.649333953857421875e+00,1.648202300071716309e+00,1.646811604499816895e+00,1.645055770874023438e+00,1.643672227859497070e+00,1.642456293106079102e+00,1.640653014183044434e+00,1.639052867889404297e+00,1.637233257293701172e+00,1.634919881820678711e+00,1.633519053459167480e+00,1.631775736808776855e+00,1.630186319351196289e+00,1.628116130828857422e+00,1.626237511634826660e+00,1.624292731285095215e+00,1.622135519981384277e+00,1.619847655296325684e+00,1.618049383163452148e+00,1.616258382797241211e+00,1.614532232284545898e+00
1.751108765602111816e+00,1.751343846321105957e+00,1.751453638076782227e+00,1.751595854759216309e+00,1.751657724380493164e+00,1.752026081085205078e+00,1.752417922019958496e+00,1.752284407615661621e+00,1.752220630645751953e+00,1.752307295799255371e+00,1.752735018730163574e+00,1.752976536750793457e+00,1.753168106079101562e+00,1.753188133239746094e+00,1.753212690353393555e+00,1.753011941909790039e+00,1.752787709236145020e+00,1.752630472183227539e+00,1.752875804901123047e+00,1.752736210823059082e+00,1.752737045288085938e+00,1.752123951911926270e+00,1.751801013946533203e+00,1.751564741134643555e+00,1.751270413398742676e+00,1.750396251678466797e+00,1.749967575073242188e+00,1.749421596527099609e+00,1.748439192771911621e+00,1.747868299484252930e+00,1.746915578842163086e+00,1.746078968048095703e+00,1.745280861854553223e+00,1.744414806365966797e+00,1.743741750717163086e+00,1.743148922920227051e+00,1.741779327392578125e+00,1.740323066711425781e+00,1.739643096923828125e+00,1.738366365432739258e+00,1.737168192863464355e+00,1.735570073127746582e+00,1.734926700592041016e+00,1.733824133872985840e+00,1.732444167137145996e+00,1.730584025382995605e+00,1.729911088943481445e+00,1.728024363517761230e+00,1.727046012878417969e+00,1.725829124450683594e+00,1.723914265632629395e+00,1.722639441490173340e+00,1.721194267272949219e+00,1.719525337219238281e+00,1.717908620834350586e+00,1.716083288192749023e+00,1.714137077331542969e+00,1.712802886962890625e+00,1.711238026618957520e+00,1.709738016128540039e+00,1.708193540573120117e+00,1.706392407417297363e+00,1.704661011695861816e+00,1.703264236450195312e+00,1.701938271522521973e+00,1.700512886047363281e+00,1.699033617973327637e+00,1.697444915771484375e+00,1.696363091468811035e+00,1.694733142852783203e+00,1.693427085876464844e+00,1.692346692085266113e+00,1.690879702568054199e+00,1.689194917678833008e+00,1.687703132629394531e+00,1.686453580856323242e+00,1.684937715530395508e+00,1.683617591857910156e+00,1.682267427444458008e+00,1.681213259696960449e+00,1.679344296455383301e+00,1.677997589111328125e+00,1.676387310028076172e+00,1.675201416015625000e+00,1.673835635185241699e+00,1.672387003898620605e+00,1.670501708984375000e+00,1.669059872627258301e+00,1.668254137039184570e+00,1.666810631752014160e+00,1.664994001388549805e+00,1.663617730140686035e+00,1.662079215049743652e+00,1.660642504692077637e+00,1.659214019775390625e+00,1.657997131347656250e+00,1.656501173973083496e+00,1.654722094535827637e+00,1.653469443321228027e+00,1.652029752731323242e+00,1.650773763656616211e+00,1.649250268936157227e+00,1.647748351097106934e+00,1.646164655685424805e+00,1.644584178924560547e+00,1.642976284027099609e+00,1.641582489013671875e+00,1.639421463012695312e+00,1.637607932090759277e+00,1.635817170143127441e+00,1.634030461311340332e+00,1.632097959518432617e+00,1.630388975143432617e+00,1.628489732742309570e+00,1.626496672630310059e+00,1.624231934547424316e+00,1.622429490089416504e+00,1.620272994041442871e+00,1.618571996688842773e+00
1.755865931510925293e+00,1.756134986877441406e+00,1.756382822990417480e+00,1.756368756294250488e+00,1.756622791290283203e+00,1.756947636604309082e+00,1.757153749465942383e+00,1.757272124290466309e+00,1.757365226745605469e+00,1.757589101791381836e+00,1.757569193840026855e+00,1.757990717887878418e+00,1.757739186286926270e+00,1.758290648460388184e+00,1.757882237434387207e+00,1.758205890655517578e+00,1.758230209350585938e+00,1.757854580879211426e+00,1.757797122001647949e+00,1.757511377334594727e+00,1.757503509521484375e+00,1.757330298423767090e+00,1.756871104240417480e+00,1.756456494331359863e+00,1.756137132644653320e+00,1.755661010742187500e+00,1.755043387413024902e+00,1.754266977310180664e+00,1.753685474395751953e+00,1.753075122833251953e+00,1.752175331115722656e+00,1.751332521438598633e+00,1.750443220138549805e+00,1.749613881111145020e+00,1.748773932456970215e+00,1.747885346412658691e+00,1.746856808662414551e+00,1.745637059211730957e+00,1.744381427764892578e+00,1.743656992912292480e+00,1.742440581321716309e+00,1.741385579109191895e+00,1.739873170852661133e+00,1.739242434501647949e+00,1.737809181213378906e+00,1.736338615417480469e+00,1.734478831291198730e+00,1.733310818672180176e+00,1.731717586517333984e+00,1.730921268463134766e+00,1.729404449462890625e+00,1.727931976318359375e+00,1.726425766944885254e+00,1.725046396255493164e+00,1.723393082618713379e+00,1.721675515174865723e+00,1.720343828201293945e+00,1.718145132064819336e+00,1.716770052909851074e+00,1.715289711952209473e+00,1.713682174682617188e+00,1.712193131446838379e+00,1.710441112518310547e+00,1.708611726760864258e+00,1.707361221313476562e+00,1.705517411231994629e+00,1.704337716102600098e+00,1.702804923057556152e+00,1.701413750648498535e+00,1.700144290924072266e+00,1.698364377021789551e+00,1.696861743927001953e+00,1.695742964744567871e+00,1.694460511207580566e+00,1.693270444869995117e+00,1.691790819168090820e+00,1.690459370613098145e+00,1.688419103622436523e+00,1.687286853790283203e+00,1.685978174209594727e+00,1.684516429901123047e+00,1.682644963264465332e+00,1.681551456451416016e+00,1.680035352706909180e+00,1.678613662719726562e+00,1.676716208457946777e+00,1.675816059112548828e+00,1.674254536628723145e+00,1.672736167907714844e+00,1.671485304832458496e+00,1.669951200485229492e+00,1.668561577796936035e+00,1.667079925537109375e+00,1.665925383567810059e+00,1.664365410804748535e+00,1.662740468978881836e+00,1.660960793495178223e+00,1.659581661224365234e+00,1.658036351203918457e+00,1.656874179840087891e+00,1.655483126640319824e+00,1.653783798217773438e+00,1.652904510498046875e+00,1.651227116584777832e+00,1.649563074111938477e+00,1.647614598274230957e+00,1.646121859550476074e+00,1.644426703453063965e+00,1.642765879631042480e+00,1.640804767608642578e+00,1.639224767684936523e+00,1.637441873550415039e+00,1.635284185409545898e+00,1.633684992790222168e+00,1.631345391273498535e+00,1.629355788230895996e+00,1.627031564712524414e+00,1.625348687171936035e+00,1.623423814773559570e+00
1.759152173995971680e+00,1.759551882743835449e+00,1.759680271148681641e+00,1.759987235069274902e+00,1.759846925735473633e+00,1.760115385055541992e+00,1.760656237602233887e+00,1.760631322860717773e+00,1.760666608810424805e+00,1.760765790939331055e+00,1.761558055877685547e+00,1.761110901832580566e+00,1.761441111564636230e+00,1.760999679565429688e+00,1.761411786079406738e+00,1.761774778366088867e+00,1.761611461639404297e+00,1.761435031890869141e+00,1.761097788810729980e+00,1.761507511138916016e+00,1.760856986045837402e+00,1.760571956634521484e+00,1.760218143463134766e+00,1.760482192039489746e+00,1.759609818458557129e+00,1.759240269660949707e+00,1.758744716644287109e+00,1.758088588714599609e+00,1.757390618324279785e+00,1.756734609603881836e+00,1.755789399147033691e+00,1.754964590072631836e+00,1.754067778587341309e+00,1.753355622291564941e+00,1.752774715423583984e+00,1.751722455024719238e+00,1.750704288482666016e+00,1.749522686004638672e+00,1.748409032821655273e+00,1.747369647026062012e+00,1.746018290519714355e+00,1.744949102401733398e+00,1.743787407875061035e+00,1.743055343627929688e+00,1.741500973701477051e+00,1.740330100059509277e+00,1.739059090614318848e+00,1.737615704536437988e+00,1.736400127410888672e+00,1.734721422195434570e+00,1.733590841293334961e+00,1.732047438621520996e+00,1.730557560920715332e+00,1.728737354278564453e+00,1.727248191833496094e+00,1.725715517997741699e+00,1.724264621734619141e+00,1.722777247428894043e+00,1.721061229705810547e+00,1.719739317893981934e+00,1.718011856079101562e+00,1.715915083885192871e+00,1.714573621749877930e+00,1.713181734085083008e+00,1.711523532867431641e+00,1.709767818450927734e+00,1.708130121231079102e+00,1.706511139869689941e+00,1.705553531646728516e+00,1.703839778900146484e+00,1.702726840972900391e+00,1.701246261596679688e+00,1.699703335762023926e+00,1.698189735412597656e+00,1.696818828582763672e+00,1.695354461669921875e+00,1.694412946701049805e+00,1.692694783210754395e+00,1.691180348396301270e+00,1.689750909805297852e+00,1.688781142234802246e+00,1.687062740325927734e+00,1.685277342796325684e+00,1.684311628341674805e+00,1.682634592056274414e+00,1.680892229080200195e+00,1.679660439491271973e+00,1.678053498268127441e+00,1.677044034004211426e+00,1.675643086433410645e+00,1.674159288406372070e+00,1.672467231750488281e+00,1.671190619468688965e+00,1.669362068176269531e+00,1.668167710304260254e+00,1.666656136512756348e+00,1.665459156036376953e+00,1.663736581802368164e+00,1.662543296813964844e+00,1.660870194435119629e+00,1.659781575202941895e+00,1.657797336578369141e+00,1.656397819519042969e+00,1.654783010482788086e+00,1.653363585472106934e+00,1.651181221008300781e+00,1.649873375892639160e+00,1.647897005081176758e+00,1.646545052528381348e+00,1.645002126693725586e+00,1.643046736717224121e+00,1.641490578651428223e+00,1.639905691146850586e+00,1.637256741523742676e+00,1.635353207588195801e+00,1.633439540863037109e+00,1.631526589393615723e+00,1.629170656204223633e+00,1.627484560012817383e+00
1.763996362686157227e+00,1.764380216598510742e+00,1.764428615570068359e+00,1.764929652214050293e+00,1.765187859535217285e+00,1.765237092971801758e+00,1.765403747558593750e+00,1.765625596046447754e+00,1.765777349472045898e+00,1.765679597854614258e+00,1.766346216201782227e+00,1.766555666923522949e+00,1.766284942626953125e+00,1.766304612159729004e+00,1.766481041908264160e+00,1.766782879829406738e+00,1.766700387001037598e+00,1.766491174697875977e+00,1.765856027603149414e+00,1.766356348991394043e+00,1.766282439231872559e+00,1.765728831291198730e+00,1.765508890151977539e+00,1.764802098274230957e+00,1.764682888984680176e+00,1.763890981674194336e+00,1.763954281806945801e+00,1.763121247291564941e+00,1.762570142745971680e+00,1.761705040931701660e+00,1.761074662208557129e+00,1.760546326637268066e+00,1.759784579277038574e+00,1.758638620376586914e+00,1.758091688156127930e+00,1.756935477256774902e+00,1.755683779716491699e+00,1.754908442497253418e+00,1.753834128379821777e+00,1.752830743789672852e+00,1.751882314682006836e+00,1.750087738037109375e+00,1.749163031578063965e+00,1.748230695724487305e+00,1.747122764587402344e+00,1.745157837867736816e+00,1.744046807289123535e+00,1.742588996887207031e+00,1.741191387176513672e+00,1.740050792694091797e+00,1.738294363021850586e+00,1.737385511398315430e+00,1.735242247581481934e+00,1.734145283699035645e+00,1.732699871063232422e+00,1.730968594551086426e+00,1.729213595390319824e+00,1.727764248847961426e+00,1.726206541061401367e+00,1.724906802177429199e+00,1.723450899124145508e+00,1.721550941467285156e+00,1.719879150390625000e+00,1.718259811401367188e+00,1.716695070266723633e+00,1.715343236923217773e+00,1.713563680648803711e+00,1.712058305740356445e+00,1.710302829742431641e+00,1.709336757659912109e+00,1.707511067390441895e+00,1.705793619155883789e+00,1.704356551170349121e+00,1.703220486640930176e+00,1.701917409896850586e+00,1.700235605239868164e+00,1.698631405830383301e+00,1.697561740875244141e+00,1.696125745773315430e+00,1.694708824157714844e+00,1.693090796470642090e+00,1.692054986953735352e+00,1.690123081207275391e+00,1.688579559326171875e+00,1.687381863594055176e+00,1.685981035232543945e+00,1.684355735778808594e+00,1.683458209037780762e+00,1.681685209274291992e+00,1.680205464363098145e+00,1.678687572479248047e+00,1.677132725715637207e+00,1.675737023353576660e+00,1.674227833747863770e+00,1.672965645790100098e+00,1.671396017074584961e+00,1.669846892356872559e+00,1.668306708335876465e+00,1.667010903358459473e+00,1.665810942649841309e+00,1.664184451103210449e+00,1.662746906280517578e+00,1.660817146301269531e+00,1.659572005271911621e+00,1.657694935798645020e+00,1.656480431556701660e+00,1.654289245605468750e+00,1.653176426887512207e+00,1.651204705238342285e+00,1.649824023246765137e+00,1.648119211196899414e+00,1.645770072937011719e+00,1.644492387771606445e+00,1.642454981803894043e+00,1.640299677848815918e+00,1.638248682022094727e+00,1.636382222175598145e+00,1.634261369705200195e+00,1.632292628288269043e+00
1.766963720321655273e+00,1.767440915107727051e+00,1.767625331878662109e+00,1.767920374870300293e+00,1.768423318862915039e+00,1.768420696258544922e+00,1.768360733985900879e+00,1.768506050109863281e+00,1.769140124320983887e+00,1.769018769264221191e+00,1.769359230995178223e+00,1.769744038581848145e+00,1.769449830055236816e+00,1.769840598106384277e+00,1.769734859466552734e+00,1.769808650016784668e+00,1.770017147064208984e+00,1.769819259643554688e+00,1.769380331039428711e+00,1.769119620323181152e+00,1.769289255142211914e+00,1.768913865089416504e+00,1.768655300140380859e+00,1.768322706222534180e+00,1.767755270004272461e+00,1.767437100410461426e+00,1.767044782638549805e+00,1.766378402709960938e+00,1.765738129615783691e+00,1.764880061149597168e+00,1.763779163360595703e+00,1.763281106948852539e+00,1.762310624122619629e+00,1.761241197586059570e+00,1.761012554168701172e+00,1.759920835494995117e+00,1.758723616600036621e+00,1.757934212684631348e+00,1.757002830505371094e+00,1.755775809288024902e+00,1.754939794540405273e+00,1.753579020500183105e+00,1.752364277839660645e+00,1.751409292221069336e+00,1.750434160232543945e+00,1.748806595802307129e+00,1.747346758842468262e+00,1.745981812477111816e+00,1.744785547256469727e+00,1.743277192115783691e+00,1.741856098175048828e+00,1.740571737289428711e+00,1.739219546318054199e+00,1.737343549728393555e+00,1.735986113548278809e+00,1.734668850898742676e+00,1.732865571975708008e+00,1.731202483177185059e+00,1.729410409927368164e+00,1.728440284729003906e+00,1.726586937904357910e+00,1.725027322769165039e+00,1.723484754562377930e+00,1.721985220909118652e+00,1.720286488533020020e+00,1.718657255172729492e+00,1.717320442199707031e+00,1.715988159179687500e+00,1.714105725288391113e+00,1.712438702583312988e+00,1.710770964622497559e+00,1.709335446357727051e+00,1.708185911178588867e+00,1.706637859344482422e+00,1.705242276191711426e+00,1.703696489334106445e+00,1.702458620071411133e+00,1.700753569602966309e+00,1.699194192886352539e+00,1.697642803192138672e+00,1.696529984474182129e+00,1.695056319236755371e+00,1.693745970726013184e+00,1.692228078842163086e+00,1.690485119819641113e+00,1.689169049263000488e+00,1.688060998916625977e+00,1.686608314514160156e+00,1.685221791267395020e+00,1.683226704597473145e+00,1.681965708732604980e+00,1.680828332901000977e+00,1.679078102111816406e+00,1.677755832672119141e+00,1.676456212997436523e+00,1.674777030944824219e+00,1.673753857612609863e+00,1.672060370445251465e+00,1.670219182968139648e+00,1.669459819793701172e+00,1.668014287948608398e+00,1.666616916656494141e+00,1.664650559425354004e+00,1.663300752639770508e+00,1.661864399909973145e+00,1.659726858139038086e+00,1.657835364341735840e+00,1.656598448753356934e+00,1.655007243156433105e+00,1.653266787528991699e+00,1.651415228843688965e+00,1.649535059928894043e+00,1.647738814353942871e+00,1.646076083183288574e+00,1.644223213195800781e+00,1.642422318458557129e+00,1.640546441078186035e+00,1.638067483901977539e+00,1.636288523674011230e+00
1.772012472152709961e+00,1.772498846054077148e+00,1.772604465484619141e+00,1.773211956024169922e+00,1.773098945617675781e+00,1.773582339286804199e+00,1.773717284202575684e+00,1.774081587791442871e+00,1.774154901504516602e+00,1.774651646614074707e+00,1.774547815322875977e+00,1.774977922439575195e+00,1.774552345275878906e+00,1.774549722671508789e+00,1.775176882743835449e+00,1.775133132934570312e+00,1.774896502494812012e+00,1.774567604064941406e+00,1.774567604064941406e+00,1.774620294570922852e+00,1.774215340614318848e+00,1.774029731750488281e+00,1.773745775222778320e+00,1.773458361625671387e+00,1.772745490074157715e+00,1.772616863250732422e+00,1.772199749946594238e+00,1.771577715873718262e+00,1.770697712898254395e+00,1.770305395126342773e+00,1.769574761390686035e+00,1.768574357032775879e+00,1.767800569534301758e+00,1.767062187194824219e+00,1.766004920005798340e+00,1.764891147613525391e+00,1.763975381851196289e+00,1.763258337974548340e+00,1.762081742286682129e+00,1.760949015617370605e+00,1.759735107421875000e+00,1.758602142333984375e+00,1.757505178451538086e+00,1.756718397140502930e+00,1.755220770835876465e+00,1.754003524780273438e+00,1.752205014228820801e+00,1.751210451126098633e+00,1.749902606010437012e+00,1.747817277908325195e+00,1.746836900711059570e+00,1.745854020118713379e+00,1.744254112243652344e+00,1.742556929588317871e+00,1.741058826446533203e+00,1.739459156990051270e+00,1.737982511520385742e+00,1.736221671104431152e+00,1.734911084175109863e+00,1.732810616493225098e+00,1.731655597686767578e+00,1.729881644248962402e+00,1.728236794471740723e+00,1.726878404617309570e+00,1.725531101226806641e+00,1.723711252212524414e+00,1.722364544868469238e+00,1.720747828483581543e+00,1.719343781471252441e+00,1.717452406883239746e+00,1.716179966926574707e+00,1.714467406272888184e+00,1.713024258613586426e+00,1.711331129074096680e+00,1.709895372390747070e+00,1.708308696746826172e+00,1.706900596618652344e+00,1.705325841903686523e+00,1.703594803810119629e+00,1.701846241950988770e+00,1.700581789016723633e+00,1.699535012245178223e+00,1.698213934898376465e+00,1.696731090545654297e+00,1.695570826530456543e+00,1.693898677825927734e+00,1.692398548126220703e+00,1.690970659255981445e+00,1.689494967460632324e+00,1.688241362571716309e+00,1.686652421951293945e+00,1.685446977615356445e+00,1.683874011039733887e+00,1.682360529899597168e+00,1.680981993675231934e+00,1.679206371307373047e+00,1.678042769432067871e+00,1.676769852638244629e+00,1.675050020217895508e+00,1.673690199851989746e+00,1.672713041305541992e+00,1.671306133270263672e+00,1.669360399246215820e+00,1.668058037757873535e+00,1.666690468788146973e+00,1.664850950241088867e+00,1.663314104080200195e+00,1.661274433135986328e+00,1.659365534782409668e+00,1.657713770866394043e+00,1.656117081642150879e+00,1.654388904571533203e+00,1.652420878410339355e+00,1.650660514831542969e+00,1.648328661918640137e+00,1.646849155426025391e+00,1.644949316978454590e+00,1.642866373062133789e+00,1.640927791595458984e+00
1.774783015251159668e+00,1.775391221046447754e+00,1.775985121726989746e+00,1.775984287261962891e+00,1.776747941970825195e+00,1.776682972908020020e+00,1.776811480522155762e+00,1.777099132537841797e+00,1.777570724487304688e+00,1.777791500091552734e+00,1.778033852577209473e+00,1.777936577796936035e+00,1.778520464897155762e+00,1.778236389160156250e+00,1.778079748153686523e+00,1.778654694557189941e+00,1.778442263603210449e+00,1.778213977813720703e+00,1.777948856353759766e+00,1.777824878692626953e+00,1.777865171432495117e+00,1.777532935142517090e+00,1.777124285697937012e+00,1.776676058769226074e+00,1.776191115379333496e+00,1.775719881057739258e+00,1.775705695152282715e+00,1.774832844734191895e+00,1.774025678634643555e+00,1.773653149604797363e+00,1.772773504257202148e+00,1.772220611572265625e+00,1.771046757698059082e+00,1.769984364509582520e+00,1.769548177719116211e+00,1.768768787384033203e+00,1.767589211463928223e+00,1.766619682312011719e+00,1.765335559844970703e+00,1.764359235763549805e+00,1.763276100158691406e+00,1.762048840522766113e+00,1.760922908782958984e+00,1.760355472564697266e+00,1.758617877960205078e+00,1.757101893424987793e+00,1.755863666534423828e+00,1.754534602165222168e+00,1.753337740898132324e+00,1.751938462257385254e+00,1.750454187393188477e+00,1.749439001083374023e+00,1.747856616973876953e+00,1.746353268623352051e+00,1.744622468948364258e+00,1.742747664451599121e+00,1.741656541824340820e+00,1.739944458007812500e+00,1.738530516624450684e+00,1.737036347389221191e+00,1.735668659210205078e+00,1.733626246452331543e+00,1.731892228126525879e+00,1.729988217353820801e+00,1.728851199150085449e+00,1.727122664451599121e+00,1.725976467132568359e+00,1.724206566810607910e+00,1.723124861717224121e+00,1.721105337142944336e+00,1.719557523727416992e+00,1.718421697616577148e+00,1.717247605323791504e+00,1.714949369430541992e+00,1.713466763496398926e+00,1.712093949317932129e+00,1.710211992263793945e+00,1.708911776542663574e+00,1.707139492034912109e+00,1.705693960189819336e+00,1.704312801361083984e+00,1.702661633491516113e+00,1.701552510261535645e+00,1.700095415115356445e+00,1.698414564132690430e+00,1.697428345680236816e+00,1.695834279060363770e+00,1.694307804107666016e+00,1.692884206771850586e+00,1.691441178321838379e+00,1.690422415733337402e+00,1.688702106475830078e+00,1.687583327293395996e+00,1.686060905456542969e+00,1.684282541275024414e+00,1.682806849479675293e+00,1.681543588638305664e+00,1.679575681686401367e+00,1.678715348243713379e+00,1.677159190177917480e+00,1.675923347473144531e+00,1.674458026885986328e+00,1.673029899597167969e+00,1.671695113182067871e+00,1.670071721076965332e+00,1.668281793594360352e+00,1.667047500610351562e+00,1.665578246116638184e+00,1.663592219352722168e+00,1.661419034004211426e+00,1.659826993942260742e+00,1.657802462577819824e+00,1.656292319297790527e+00,1.654460549354553223e+00,1.652526736259460449e+00,1.650610923767089844e+00,1.648983478546142578e+00,1.646471619606018066e+00,1.644890189170837402e+00
1.779800415039062500e+00,1.780103683471679688e+00,1.780839681625366211e+00,1.781168699264526367e+00,1.781543135643005371e+00,1.781868577003479004e+00,1.781895995140075684e+00,1.782284855842590332e+00,1.782628536224365234e+00,1.783027529716491699e+00,1.783314466476440430e+00,1.782962560653686523e+00,1.783473372459411621e+00,1.783495187759399414e+00,1.783352613449096680e+00,1.783871173858642578e+00,1.783704280853271484e+00,1.783326625823974609e+00,1.783156394958496094e+00,1.783293247222900391e+00,1.783390164375305176e+00,1.782949090003967285e+00,1.782506465911865234e+00,1.781913042068481445e+00,1.781431913375854492e+00,1.780984282493591309e+00,1.780514597892761230e+00,1.780276060104370117e+00,1.779356241226196289e+00,1.778545975685119629e+00,1.778453946113586426e+00,1.777398705482482910e+00,1.776632428169250488e+00,1.775467634201049805e+00,1.774659752845764160e+00,1.773879289627075195e+00,1.773008346557617188e+00,1.771928906440734863e+00,1.770960927009582520e+00,1.769515037536621094e+00,1.768472552299499512e+00,1.767093777656555176e+00,1.766175985336303711e+00,1.765294909477233887e+00,1.763928532600402832e+00,1.762293577194213867e+00,1.761102080345153809e+00,1.759650945663452148e+00,1.758382439613342285e+00,1.756734251976013184e+00,1.755473136901855469e+00,1.754323244094848633e+00,1.753001093864440918e+00,1.750900983810424805e+00,1.749795079231262207e+00,1.748101353645324707e+00,1.746567130088806152e+00,1.745182156562805176e+00,1.743273377418518066e+00,1.741488814353942871e+00,1.740103840827941895e+00,1.738601684570312500e+00,1.736807584762573242e+00,1.735409021377563477e+00,1.733867526054382324e+00,1.731936573982238770e+00,1.730496048927307129e+00,1.728916525840759277e+00,1.727403283119201660e+00,1.726283192634582520e+00,1.724550604820251465e+00,1.722974896430969238e+00,1.721583008766174316e+00,1.719951868057250977e+00,1.718146800994873047e+00,1.717022299766540527e+00,1.715459465980529785e+00,1.713494181632995605e+00,1.711899518966674805e+00,1.710228562355041504e+00,1.709173798561096191e+00,1.707299828529357910e+00,1.705757617950439453e+00,1.704697251319885254e+00,1.702849388122558594e+00,1.701337218284606934e+00,1.700248479843139648e+00,1.699037075042724609e+00,1.697521328926086426e+00,1.696020007133483887e+00,1.694768786430358887e+00,1.693174719810485840e+00,1.691791057586669922e+00,1.690734982490539551e+00,1.688938021659851074e+00,1.687734723091125488e+00,1.686340093612670898e+00,1.685156226158142090e+00,1.683592081069946289e+00,1.682236909866333008e+00,1.681012034416198730e+00,1.679457545280456543e+00,1.677702665328979492e+00,1.676433563232421875e+00,1.674561023712158203e+00,1.673416018486022949e+00,1.671501278877258301e+00,1.669848561286926270e+00,1.668507814407348633e+00,1.666899085044860840e+00,1.665069222450256348e+00,1.663205265998840332e+00,1.661067128181457520e+00,1.659388065338134766e+00,1.657425761222839355e+00,1.655548214912414551e+00,1.653540015220642090e+00,1.651408672332763672e+00,1.649332761764526367e+00
1.783073425292968750e+00,1.783804774284362793e+00,1.784081816673278809e+00,1.784584283828735352e+00,1.784536600112915039e+00,1.785312414169311523e+00,1.785260081291198730e+00,1.785679697990417480e+00,1.786096572875976562e+00,1.786384344100952148e+00,1.786770701408386230e+00,1.786612033843994141e+00,1.787015438079833984e+00,1.786955356597900391e+00,1.786736845970153809e+00,1.787025690078735352e+00,1.787146806716918945e+00,1.787209033966064453e+00,1.786673665046691895e+00,1.786538958549499512e+00,1.786622524261474609e+00,1.786099791526794434e+00,1.785702347755432129e+00,1.785519719123840332e+00,1.785401105880737305e+00,1.784795761108398438e+00,1.784125924110412598e+00,1.784138083457946777e+00,1.783139586448669434e+00,1.782267808914184570e+00,1.781682968139648438e+00,1.780959606170654297e+00,1.780065059661865234e+00,1.778938412666320801e+00,1.778161048889160156e+00,1.777538180351257324e+00,1.776415467262268066e+00,1.775402426719665527e+00,1.774448394775390625e+00,1.772690296173095703e+00,1.771915912628173828e+00,1.770611763000488281e+00,1.769605755805969238e+00,1.768577337265014648e+00,1.767600536346435547e+00,1.765643954277038574e+00,1.764668941497802734e+00,1.762730836868286133e+00,1.761722326278686523e+00,1.760047674179077148e+00,1.758818984031677246e+00,1.757806777954101562e+00,1.756339788436889648e+00,1.754166364669799805e+00,1.752844810485839844e+00,1.751335859298706055e+00,1.749676108360290527e+00,1.747941255569458008e+00,1.746724963188171387e+00,1.745136618614196777e+00,1.743538737297058105e+00,1.741697669029235840e+00,1.740664005279541016e+00,1.738527655601501465e+00,1.737208127975463867e+00,1.735773921012878418e+00,1.733991384506225586e+00,1.732680678367614746e+00,1.730860233306884766e+00,1.729048252105712891e+00,1.727974057197570801e+00,1.726250767707824707e+00,1.724619150161743164e+00,1.722970247268676758e+00,1.721742391586303711e+00,1.720253467559814453e+00,1.718729257583618164e+00,1.716850638389587402e+00,1.715351939201354980e+00,1.713496088981628418e+00,1.712203145027160645e+00,1.710569500923156738e+00,1.709205508232116699e+00,1.707726359367370605e+00,1.706115961074829102e+00,1.704556107521057129e+00,1.703008413314819336e+00,1.701851963996887207e+00,1.700221538543701172e+00,1.699188590049743652e+00,1.697947382926940918e+00,1.696521997451782227e+00,1.695123910903930664e+00,1.693600296974182129e+00,1.692215442657470703e+00,1.690874934196472168e+00,1.689724087715148926e+00,1.688110947608947754e+00,1.686760902404785156e+00,1.684940218925476074e+00,1.684101939201354980e+00,1.682818293571472168e+00,1.681109428405761719e+00,1.679608106613159180e+00,1.678131341934204102e+00,1.676805377006530762e+00,1.675385475158691406e+00,1.673583865165710449e+00,1.671815276145935059e+00,1.669657707214355469e+00,1.668120861053466797e+00,1.666848063468933105e+00,1.665312170982360840e+00,1.662987351417541504e+00,1.661289572715759277e+00,1.659191727638244629e+00,1.657155632972717285e+00,1.655076146125793457e+00,1.653145790100097656e+00
1.788311362266540527e+00,1.788697600364685059e+00,1.789057493209838867e+00,1.789558053016662598e+00,1.789856076240539551e+00,1.790301442146301270e+00,1.790431380271911621e+00,1.791052818298339844e+00,1.790721535682678223e+00,1.791411042213439941e+00,1.791730523109436035e+00,1.792030930519104004e+00,1.792178153991699219e+00,1.792585015296936035e+00,1.792557358741760254e+00,1.792492389678955078e+00,1.792353391647338867e+00,1.792191147804260254e+00,1.792561650276184082e+00,1.792114853858947754e+00,1.791786789894104004e+00,1.791517496109008789e+00,1.791129469871520996e+00,1.790666460990905762e+00,1.790362477302551270e+00,1.789790034294128418e+00,1.789446949958801270e+00,1.789085030555725098e+00,1.788489341735839844e+00,1.787532806396484375e+00,1.787163019180297852e+00,1.786558032035827637e+00,1.785206556320190430e+00,1.784801483154296875e+00,1.783980607986450195e+00,1.782896280288696289e+00,1.781589269638061523e+00,1.780745983123779297e+00,1.779531121253967285e+00,1.778424859046936035e+00,1.777049183845520020e+00,1.775722265243530273e+00,1.774954438209533691e+00,1.773696541786193848e+00,1.772103309631347656e+00,1.770595550537109375e+00,1.769202589988708496e+00,1.768038153648376465e+00,1.766461133956909180e+00,1.765177130699157715e+00,1.763118267059326172e+00,1.761912465095520020e+00,1.760709047317504883e+00,1.758990287780761719e+00,1.757637739181518555e+00,1.756153941154479980e+00,1.754333734512329102e+00,1.752447128295898438e+00,1.751138448715209961e+00,1.749540090560913086e+00,1.747943282127380371e+00,1.746235013008117676e+00,1.744802117347717285e+00,1.743023395538330078e+00,1.741387009620666504e+00,1.739580750465393066e+00,1.738307356834411621e+00,1.736765146255493164e+00,1.735594511032104492e+00,1.733585000038146973e+00,1.731660008430480957e+00,1.730562925338745117e+00,1.728877544403076172e+00,1.727270722389221191e+00,1.725953221321105957e+00,1.724237084388732910e+00,1.723027944564819336e+00,1.720912575721740723e+00,1.719731688499450684e+00,1.718235373497009277e+00,1.716597676277160645e+00,1.715331435203552246e+00,1.713222980499267578e+00,1.711999297142028809e+00,1.710740089416503906e+00,1.709304809570312500e+00,1.707813143730163574e+00,1.706100940704345703e+00,1.704843282699584961e+00,1.703200936317443848e+00,1.701778292655944824e+00,1.700376033782958984e+00,1.699053525924682617e+00,1.697798013687133789e+00,1.696551680564880371e+00,1.694980621337890625e+00,1.693938732147216797e+00,1.692426919937133789e+00,1.691126108169555664e+00,1.689921140670776367e+00,1.688540101051330566e+00,1.686886787414550781e+00,1.685612440109252930e+00,1.684036612510681152e+00,1.682507276535034180e+00,1.681015014648437500e+00,1.679832816123962402e+00,1.677804470062255859e+00,1.676045894622802734e+00,1.674762964248657227e+00,1.672634601593017578e+00,1.671116232872009277e+00,1.669367432594299316e+00,1.667601108551025391e+00,1.665825724601745605e+00,1.663655281066894531e+00,1.661567211151123047e+00,1.659566640853881836e+00,1.657367348670959473e+00
1.791462659835815430e+00,1.791914939880371094e+00,1.792297244071960449e+00,1.792793512344360352e+00,1.793027400970458984e+00,1.793633580207824707e+00,1.794136047363281250e+00,1.794334173202514648e+00,1.794605851173400879e+00,1.794839143753051758e+00,1.795313596725463867e+00,1.795524954795837402e+00,1.795314669609069824e+00,1.795608162879943848e+00,1.795691370964050293e+00,1.795476436614990234e+00,1.795899271965026855e+00,1.795597195625305176e+00,1.795107483863830566e+00,1.795205831527709961e+00,1.794932484626770020e+00,1.795157432556152344e+00,1.794410705566406250e+00,1.794374942779541016e+00,1.793995857238769531e+00,1.793386459350585938e+00,1.792288064956665039e+00,1.792608976364135742e+00,1.792189121246337891e+00,1.791040778160095215e+00,1.790387034416198730e+00,1.789681911468505859e+00,1.789156675338745117e+00,1.788107514381408691e+00,1.787384390830993652e+00,1.786188602447509766e+00,1.785318136215209961e+00,1.784125089645385742e+00,1.783141970634460449e+00,1.782154560089111328e+00,1.780996203422546387e+00,1.779598593711853027e+00,1.778435707092285156e+00,1.776957035064697266e+00,1.775447368621826172e+00,1.774316668510437012e+00,1.772742748260498047e+00,1.771309018135070801e+00,1.769859075546264648e+00,1.768065690994262695e+00,1.766878843307495117e+00,1.765756249427795410e+00,1.763889908790588379e+00,1.761829733848571777e+00,1.760378956794738770e+00,1.759090423583984375e+00,1.757657527923583984e+00,1.755606651306152344e+00,1.754107236862182617e+00,1.752874135971069336e+00,1.751179933547973633e+00,1.749541282653808594e+00,1.747994422912597656e+00,1.746362686157226562e+00,1.744261741638183594e+00,1.742664098739624023e+00,1.741424441337585449e+00,1.739784955978393555e+00,1.738297462463378906e+00,1.736709594726562500e+00,1.734480738639831543e+00,1.733179211616516113e+00,1.732103943824768066e+00,1.730552196502685547e+00,1.728897333145141602e+00,1.727234721183776855e+00,1.725646018981933594e+00,1.724103569984436035e+00,1.721943736076354980e+00,1.720846056938171387e+00,1.719416379928588867e+00,1.717731714248657227e+00,1.716908097267150879e+00,1.715165376663208008e+00,1.713701844215393066e+00,1.711836576461791992e+00,1.710541725158691406e+00,1.709134459495544434e+00,1.707690238952636719e+00,1.706433892250061035e+00,1.704954981803894043e+00,1.703483223915100098e+00,1.702465057373046875e+00,1.701014757156372070e+00,1.699215531349182129e+00,1.697778463363647461e+00,1.696601033210754395e+00,1.695399522781372070e+00,1.694030404090881348e+00,1.692626357078552246e+00,1.691302299499511719e+00,1.690390348434448242e+00,1.688716173171997070e+00,1.687493920326232910e+00,1.685777544975280762e+00,1.684041976928710938e+00,1.682643294334411621e+00,1.680954456329345703e+00,1.679237246513366699e+00,1.677469968795776367e+00,1.675992608070373535e+00,1.674389362335205078e+00,1.672806859016418457e+00,1.670680165290832520e+00,1.668903112411499023e+00,1.667034864425659180e+00,1.665230154991149902e+00,1.663197517395019531e+00,1.661077976226806641e+00
1.795872449874877930e+00,1.796537160873413086e+00,1.797004461288452148e+00,1.797631382942199707e+00,1.797864675521850586e+00,1.798287272453308105e+00,1.798653125762939453e+00,1.798969268798828125e+00,1.799021959304809570e+00,1.799141526222229004e+00,1.799301147460937500e+00,1.800014019012451172e+00,1.799665093421936035e+00,1.799732089042663574e+00,1.800463557243347168e+00,1.800418496131896973e+00,1.800238490104675293e+00,1.800181984901428223e+00,1.800099015235900879e+00,1.800094366073608398e+00,1.799670934677124023e+00,1.799541592597961426e+00,1.799163103103637695e+00,1.798627853393554688e+00,1.798450112342834473e+00,1.798072695732116699e+00,1.797613263130187988e+00,1.797220945358276367e+00,1.796756148338317871e+00,1.796179294586181641e+00,1.795569658279418945e+00,1.794838190078735352e+00,1.794017910957336426e+00,1.793512582778930664e+00,1.792186021804809570e+00,1.791304826736450195e+00,1.790751099586486816e+00,1.789304256439208984e+00,1.788315296173095703e+00,1.787404656410217285e+00,1.786155104637145996e+00,1.784479141235351562e+00,1.782966375350952148e+00,1.782093286514282227e+00,1.780363798141479492e+00,1.778680562973022461e+00,1.777486562728881836e+00,1.775848388671875000e+00,1.774466633796691895e+00,1.772585749626159668e+00,1.771047234535217285e+00,1.769390583038330078e+00,1.767945528030395508e+00,1.766295433044433594e+00,1.764669656753540039e+00,1.762801647186279297e+00,1.761306524276733398e+00,1.759621024131774902e+00,1.757724404335021973e+00,1.756733179092407227e+00,1.755088329315185547e+00,1.753695607185363770e+00,1.751879930496215820e+00,1.749893665313720703e+00,1.748274803161621094e+00,1.746647596359252930e+00,1.745111465454101562e+00,1.743522882461547852e+00,1.742041587829589844e+00,1.740547299385070801e+00,1.738829255104064941e+00,1.737158060073852539e+00,1.735642194747924805e+00,1.734040856361389160e+00,1.732220768928527832e+00,1.730573892593383789e+00,1.729085087776184082e+00,1.727762818336486816e+00,1.726418733596801758e+00,1.724562764167785645e+00,1.723548889160156250e+00,1.722145318984985352e+00,1.720516324043273926e+00,1.718872070312500000e+00,1.717199802398681641e+00,1.716040849685668945e+00,1.714298009872436523e+00,1.712981939315795898e+00,1.711718440055847168e+00,1.710410594940185547e+00,1.708693742752075195e+00,1.707166075706481934e+00,1.705580949783325195e+00,1.704500317573547363e+00,1.702907204627990723e+00,1.701583981513977051e+00,1.700291991233825684e+00,1.699407100677490234e+00,1.697532534599304199e+00,1.696238756179809570e+00,1.695089459419250488e+00,1.693902730941772461e+00,1.692432522773742676e+00,1.691040515899658203e+00,1.689836859703063965e+00,1.688085913658142090e+00,1.686171889305114746e+00,1.684637904167175293e+00,1.683219313621520996e+00,1.681573033332824707e+00,1.679809570312500000e+00,1.678107619285583496e+00,1.676588892936706543e+00,1.674642562866210938e+00,1.672658801078796387e+00,1.670660376548767090e+00,1.668868541717529297e+00,1.666995644569396973e+00,1.665152311325073242e+00
1.798453569412231445e+00,1.798707365989685059e+00,1.799134731292724609e+00,1.799800872802734375e+00,1.800130844116210938e+00,1.800845384597778320e+00,1.800763964653015137e+00,1.801545858383178711e+00,1.801768064498901367e+00,1.801899552345275879e+00,1.802309632301330566e+00,1.802382111549377441e+00,1.802546739578247070e+00,1.802712082862854004e+00,1.802520990371704102e+00,1.802998304367065430e+00,1.802578210830688477e+00,1.802482366561889648e+00,1.802260279655456543e+00,1.802543640136718750e+00,1.802235126495361328e+00,1.802017569541931152e+00,1.801793694496154785e+00,1.801248669624328613e+00,1.800804257392883301e+00,1.800284266471862793e+00,1.800424337387084961e+00,1.799937129020690918e+00,1.799029827117919922e+00,1.798452019691467285e+00,1.797739982604980469e+00,1.797532677650451660e+00,1.796568512916564941e+00,1.795529127120971680e+00,1.795345425605773926e+00,1.794108867645263672e+00,1.793044328689575195e+00,1.792129755020141602e+00,1.791123747825622559e+00,1.790031552314758301e+00,1.788839340209960938e+00,1.787337541580200195e+00,1.786014080047607422e+00,1.784612536430358887e+00,1.783706188201904297e+00,1.781568169593811035e+00,1.780282616615295410e+00,1.778061866760253906e+00,1.776876091957092285e+00,1.775458097457885742e+00,1.773585915565490723e+00,1.771976590156555176e+00,1.770494580268859863e+00,1.768576383590698242e+00,1.766971349716186523e+00,1.765646696090698242e+00,1.763998270034790039e+00,1.762164354324340820e+00,1.760707497596740723e+00,1.758691549301147461e+00,1.757526636123657227e+00,1.755789756774902344e+00,1.754071831703186035e+00,1.752460360527038574e+00,1.750632524490356445e+00,1.749054312705993652e+00,1.747579574584960938e+00,1.746311426162719727e+00,1.744711160659790039e+00,1.742385745048522949e+00,1.740874767303466797e+00,1.739352464675903320e+00,1.737944006919860840e+00,1.736473441123962402e+00,1.734866738319396973e+00,1.733410120010375977e+00,1.731891155242919922e+00,1.729940533638000488e+00,1.728677511215209961e+00,1.727033972740173340e+00,1.725398182868957520e+00,1.724109768867492676e+00,1.723260641098022461e+00,1.721248388290405273e+00,1.719891667366027832e+00,1.718533873558044434e+00,1.717044711112976074e+00,1.715644001960754395e+00,1.714024305343627930e+00,1.712821125984191895e+00,1.711557745933532715e+00,1.709890484809875488e+00,1.708423972129821777e+00,1.706807136535644531e+00,1.705422401428222656e+00,1.703957200050354004e+00,1.702591657638549805e+00,1.701713085174560547e+00,1.700236439704895020e+00,1.698859453201293945e+00,1.697413682937622070e+00,1.696255207061767578e+00,1.694696664810180664e+00,1.693275690078735352e+00,1.692028880119323730e+00,1.690328121185302734e+00,1.688873887062072754e+00,1.687329292297363281e+00,1.685496807098388672e+00,1.683973193168640137e+00,1.682246685028076172e+00,1.680651307106018066e+00,1.678655624389648438e+00,1.676885485649108887e+00,1.675179839134216309e+00,1.673483967781066895e+00,1.671403527259826660e+00,1.669363141059875488e+00,1.667369842529296875e+00
1.802364826202392578e+00,1.802565455436706543e+00,1.803486824035644531e+00,1.803860664367675781e+00,1.803958296775817871e+00,1.805012941360473633e+00,1.805433392524719238e+00,1.805658698081970215e+00,1.806117057800292969e+00,1.806272625923156738e+00,1.806921124458312988e+00,1.806757092475891113e+00,1.807082295417785645e+00,1.807119727134704590e+00,1.807172060012817383e+00,1.807346105575561523e+00,1.807487010955810547e+00,1.807355999946594238e+00,1.806719422340393066e+00,1.806430339813232422e+00,1.806824803352355957e+00,1.806708812713623047e+00,1.805659770965576172e+00,1.805651307106018066e+00,1.805443406105041504e+00,1.804934620857238770e+00,1.804803609848022461e+00,1.804258584976196289e+00,1.803791522979736328e+00,1.803236246109008789e+00,1.802239179611206055e+00,1.801774501800537109e+00,1.801273822784423828e+00,1.800278067588806152e+00,1.799594402313232422e+00,1.799088835716247559e+00,1.797599196434020996e+00,1.796964526176452637e+00,1.795943975448608398e+00,1.794924855232238770e+00,1.793585658073425293e+00,1.792020559310913086e+00,1.790690302848815918e+00,1.789373517036437988e+00,1.788471221923828125e+00,1.786683797836303711e+00,1.785126566886901855e+00,1.783172011375427246e+00,1.781845927238464355e+00,1.779901146888732910e+00,1.778134107589721680e+00,1.776496410369873047e+00,1.774552941322326660e+00,1.773040294647216797e+00,1.771247148513793945e+00,1.769296646118164062e+00,1.767721295356750488e+00,1.765859127044677734e+00,1.764726996421813965e+00,1.763092279434204102e+00,1.761399388313293457e+00,1.759413242340087891e+00,1.757890582084655762e+00,1.756105899810791016e+00,1.754626512527465820e+00,1.752656459808349609e+00,1.751070618629455566e+00,1.749450445175170898e+00,1.747942447662353516e+00,1.746383070945739746e+00,1.744578719139099121e+00,1.742934346199035645e+00,1.741596937179565430e+00,1.739297032356262207e+00,1.738151073455810547e+00,1.736545324325561523e+00,1.735078811645507812e+00,1.733752846717834473e+00,1.732001662254333496e+00,1.730179071426391602e+00,1.728833675384521484e+00,1.727500200271606445e+00,1.726111769676208496e+00,1.724913358688354492e+00,1.723737955093383789e+00,1.722139596939086914e+00,1.720697164535522461e+00,1.719215750694274902e+00,1.717988371849060059e+00,1.716377019882202148e+00,1.714985847473144531e+00,1.713650107383728027e+00,1.712251782417297363e+00,1.710549116134643555e+00,1.709062218666076660e+00,1.707434415817260742e+00,1.706163287162780762e+00,1.704683542251586914e+00,1.703697562217712402e+00,1.702182292938232422e+00,1.700833559036254883e+00,1.699125885963439941e+00,1.697924137115478516e+00,1.696894645690917969e+00,1.695112228393554688e+00,1.693712234497070312e+00,1.692211508750915527e+00,1.690657496452331543e+00,1.688774585723876953e+00,1.687145352363586426e+00,1.685320377349853516e+00,1.683534145355224609e+00,1.682052493095397949e+00,1.680703639984130859e+00,1.678598165512084961e+00,1.676445484161376953e+00,1.674580812454223633e+00,1.672582626342773438e+00,1.670789957046508789e+00
1.805257678031921387e+00,1.805797219276428223e+00,1.805947065353393555e+00,1.806875586509704590e+00,1.806800484657287598e+00,1.807352900505065918e+00,1.807903051376342773e+00,1.807818889617919922e+00,1.808374643325805664e+00,1.809045076370239258e+00,1.808890342712402344e+00,1.809536218643188477e+00,1.809317469596862793e+00,1.809546947479248047e+00,1.809475660324096680e+00,1.809867024421691895e+00,1.810272693634033203e+00,1.809648156166076660e+00,1.809849619865417480e+00,1.809585928916931152e+00,1.809244632720947266e+00,1.808916926383972168e+00,1.808819055557250977e+00,1.808355331420898438e+00,1.807977914810180664e+00,1.807847619056701660e+00,1.807502031326293945e+00,1.807172060012817383e+00,1.806147336959838867e+00,1.806147336959838867e+00,1.805330276489257812e+00,1.804449200630187988e+00,1.803961515426635742e+00,1.803485870361328125e+00,1.802475810050964355e+00,1.801671147346496582e+00,1.800371527671813965e+00,1.799293041229248047e+00,1.798535108566284180e+00,1.797518849372863770e+00,1.796117305755615234e+00,1.795225024223327637e+00,1.794176340103149414e+00,1.792655348777770996e+00,1.791167855262756348e+00,1.789783358573913574e+00,1.787780761718750000e+00,1.786362648010253906e+00,1.784593820571899414e+00,1.782662272453308105e+00,1.780899286270141602e+00,1.779192328453063965e+00,1.777321696281433105e+00,1.775417447090148926e+00,1.773826479911804199e+00,1.771945834159851074e+00,1.770395994186401367e+00,1.768450021743774414e+00,1.766948461532592773e+00,1.765586495399475098e+00,1.763885617256164551e+00,1.761753320693969727e+00,1.760477066040039062e+00,1.758465051651000977e+00,1.756926298141479492e+00,1.755375504493713379e+00,1.753924846649169922e+00,1.752051353454589844e+00,1.750478625297546387e+00,1.748863577842712402e+00,1.747047185897827148e+00,1.745159029960632324e+00,1.744034528732299805e+00,1.742152452468872070e+00,1.740825533866882324e+00,1.738953113555908203e+00,1.737400650978088379e+00,1.736526966094970703e+00,1.734484195709228516e+00,1.732851982116699219e+00,1.731463432312011719e+00,1.729951977729797363e+00,1.728458642959594727e+00,1.726879119873046875e+00,1.725696682929992676e+00,1.724572420120239258e+00,1.723072886466979980e+00,1.721446871757507324e+00,1.720067620277404785e+00,1.718755125999450684e+00,1.717661380767822266e+00,1.716178894042968750e+00,1.714553952217102051e+00,1.713223338127136230e+00,1.711717009544372559e+00,1.709869861602783203e+00,1.708623766899108887e+00,1.707226753234863281e+00,1.705733180046081543e+00,1.704875111579895020e+00,1.703052520751953125e+00,1.702091932296752930e+00,1.700486063957214355e+00,1.698838829994201660e+00,1.697288990020751953e+00,1.695677757263183594e+00,1.694238185882568359e+00,1.692593932151794434e+00,1.691143155097961426e+00,1.689448356628417969e+00,1.687948346138000488e+00,1.686415791511535645e+00,1.684245705604553223e+00,1.682572603225708008e+00,1.680522203445434570e+00,1.679035902023315430e+00,1.676964640617370605e+00,1.674998044967651367e+00,1.673239350318908691e+00
1.808850407600402832e+00,1.809818387031555176e+00,1.809886813163757324e+00,1.810177326202392578e+00,1.811053872108459473e+00,1.810965538024902344e+00,1.811763525009155273e+00,1.811897873878479004e+00,1.812083363533020020e+00,1.812819838523864746e+00,1.812981486320495605e+00,1.813178181648254395e+00,1.813427448272705078e+00,1.813442587852478027e+00,1.813608407974243164e+00,1.813895821571350098e+00,1.813956260681152344e+00,1.813698530197143555e+00,1.813601970672607422e+00,1.813453078269958496e+00,1.813527584075927734e+00,1.813503265380859375e+00,1.812676668167114258e+00,1.812543511390686035e+00,1.811915516853332520e+00,1.811723709106445312e+00,1.811831712722778320e+00,1.811397314071655273e+00,1.810957312583923340e+00,1.810260176658630371e+00,1.809726476669311523e+00,1.809075355529785156e+00,1.808420538902282715e+00,1.807375311851501465e+00,1.806831121444702148e+00,1.805951714515686035e+00,1.805197000503540039e+00,1.804048895835876465e+00,1.803129792213439941e+00,1.801980257034301758e+00,1.800403475761413574e+00,1.799056887626647949e+00,1.797530055046081543e+00,1.796592831611633301e+00,1.795399665832519531e+00,1.793648719787597656e+00,1.792039752006530762e+00,1.790637373924255371e+00,1.788860678672790527e+00,1.786769151687622070e+00,1.785114765167236328e+00,1.783199429512023926e+00,1.781560182571411133e+00,1.778961539268493652e+00,1.777637600898742676e+00,1.775855422019958496e+00,1.774022698402404785e+00,1.772843360900878906e+00,1.770779609680175781e+00,1.769027709960937500e+00,1.767265081405639648e+00,1.765209436416625977e+00,1.763515233993530273e+00,1.761812925338745117e+00,1.759974002838134766e+00,1.758396506309509277e+00,1.756531953811645508e+00,1.755491614341735840e+00,1.753573656082153320e+00,1.751379132270812988e+00,1.750114917755126953e+00,1.748649835586547852e+00,1.746799111366271973e+00,1.745147824287414551e+00,1.743653893470764160e+00,1.741655468940734863e+00,1.740515351295471191e+00,1.738720417022705078e+00,1.737333297729492188e+00,1.735454082489013672e+00,1.733944535255432129e+00,1.732887506484985352e+00,1.731383562088012695e+00,1.730152249336242676e+00,1.728579640388488770e+00,1.727521181106567383e+00,1.726107835769653320e+00,1.724593162536621094e+00,1.723462343215942383e+00,1.722169041633605957e+00,1.720764279365539551e+00,1.719460964202880859e+00,1.717933297157287598e+00,1.716118693351745605e+00,1.714799642562866211e+00,1.713085293769836426e+00,1.711671590805053711e+00,1.710448622703552246e+00,1.708966612815856934e+00,1.707549452781677246e+00,1.706171989440917969e+00,1.704323410987854004e+00,1.702408790588378906e+00,1.701508045196533203e+00,1.700150489807128906e+00,1.698368191719055176e+00,1.696854352951049805e+00,1.695131421089172363e+00,1.693529009819030762e+00,1.692185401916503906e+00,1.690697908401489258e+00,1.688922047615051270e+00,1.687108159065246582e+00,1.685159921646118164e+00,1.683231472969055176e+00,1.681329011917114258e+00,1.679535508155822754e+00,1.678056001663208008e+00,1.675610303878784180e+00
1.811193943023681641e+00,1.812082052230834961e+00,1.812031984329223633e+00,1.812552690505981445e+00,1.813501000404357910e+00,1.813515663146972656e+00,1.814288377761840820e+00,1.814509272575378418e+00,1.814528346061706543e+00,1.815047502517700195e+00,1.815492987632751465e+00,1.815349459648132324e+00,1.815934777259826660e+00,1.815882444381713867e+00,1.815910935401916504e+00,1.816429853439331055e+00,1.815822124481201172e+00,1.815927147865295410e+00,1.815927147865295410e+00,1.815772175788879395e+00,1.815381288528442383e+00,1.815586566925048828e+00,1.815613269805908203e+00,1.814918518066406250e+00,1.814873218536376953e+00,1.814383745193481445e+00,1.814247965812683105e+00,1.813916683197021484e+00,1.813253164291381836e+00,1.813133120536804199e+00,1.812377452850341797e+00,1.811456799507141113e+00,1.810540318489074707e+00,1.810287475585937500e+00,1.809107899665832520e+00,1.808612465858459473e+00,1.807506918907165527e+00,1.806382894515991211e+00,1.805303454399108887e+00,1.804672956466674805e+00,1.803313374519348145e+00,1.802095413208007812e+00,1.800520181655883789e+00,1.799119353294372559e+00,1.797887682914733887e+00,1.796558976173400879e+00,1.794831275939941406e+00,1.793324708938598633e+00,1.791424393653869629e+00,1.789044976234436035e+00,1.788120508193969727e+00,1.786117553710937500e+00,1.784284830093383789e+00,1.781823039054870605e+00,1.780064105987548828e+00,1.778332591056823730e+00,1.776378512382507324e+00,1.774382829666137695e+00,1.772688031196594238e+00,1.771410107612609863e+00,1.769573807716369629e+00,1.767487525939941406e+00,1.765900969505310059e+00,1.764511585235595703e+00,1.762542605400085449e+00,1.760853409767150879e+00,1.758986830711364746e+00,1.757132172584533691e+00,1.755908131599426270e+00,1.753901839256286621e+00,1.752269625663757324e+00,1.750956058502197266e+00,1.749043345451354980e+00,1.747032999992370605e+00,1.745472311973571777e+00,1.743916511535644531e+00,1.742587685585021973e+00,1.741150617599487305e+00,1.739181280136108398e+00,1.737656354904174805e+00,1.736405491828918457e+00,1.734639406204223633e+00,1.733447074890136719e+00,1.732191920280456543e+00,1.730640649795532227e+00,1.729416608810424805e+00,1.728231430053710938e+00,1.726616263389587402e+00,1.725274682044982910e+00,1.724159955978393555e+00,1.722823381423950195e+00,1.721316337585449219e+00,1.719708085060119629e+00,1.718590021133422852e+00,1.716751456260681152e+00,1.714835643768310547e+00,1.713928818702697754e+00,1.712178707122802734e+00,1.711049914360046387e+00,1.709397196769714355e+00,1.708041787147521973e+00,1.706472396850585938e+00,1.704445481300354004e+00,1.703257918357849121e+00,1.701796412467956543e+00,1.700227141380310059e+00,1.698609232902526855e+00,1.696758508682250977e+00,1.695438385009765625e+00,1.693825364112854004e+00,1.692457675933837891e+00,1.690763592720031738e+00,1.688926219940185547e+00,1.686974883079528809e+00,1.685003995895385742e+00,1.682973504066467285e+00,1.681623697280883789e+00,1.679494261741638184e+00,1.677761197090148926e+00
1.815084457397460938e+00,1.815761804580688477e+00,1.816012382507324219e+00,1.815953850746154785e+00,1.816574931144714355e+00,1.817181706428527832e+00,1.817124247550964355e+00,1.817750930786132812e+00,1.818316817283630371e+00,1.818808197975158691e+00,1.818629026412963867e+00,1.819218158721923828e+00,1.819064736366271973e+00,1.819546103477478027e+00,1.819490313529968262e+00,1.820022821426391602e+00,1.819514393806457520e+00,1.819872975349426270e+00,1.819996714591979980e+00,1.819774270057678223e+00,1.819879531860351562e+00,1.819400310516357422e+00,1.819117426872253418e+00,1.818939924240112305e+00,1.818596839904785156e+00,1.818489074707031250e+00,1.818235516548156738e+00,1.817766547203063965e+00,1.817186117172241211e+00,1.816534876823425293e+00,1.816218972206115723e+00,1.815317153930664062e+00,1.814982414245605469e+00,1.813977956771850586e+00,1.813158988952636719e+00,1.812597751617431641e+00,1.811564922332763672e+00,1.810519933700561523e+00,1.809545159339904785e+00,1.808280110359191895e+00,1.807665228843688965e+00,1.805492758750915527e+00,1.804478883743286133e+00,1.802948832511901855e+00,1.801696658134460449e+00,1.799769997596740723e+00,1.798635601997375488e+00,1.797275900840759277e+00,1.795194029808044434e+00,1.793098926544189453e+00,1.791358828544616699e+00,1.789697647094726562e+00,1.787966489791870117e+00,1.785930633544921875e+00,1.783992290496826172e+00,1.782255768775939941e+00,1.780676603317260742e+00,1.778263568878173828e+00,1.776647686958312988e+00,1.774377107620239258e+00,1.772912263870239258e+00,1.770924687385559082e+00,1.769100189208984375e+00,1.767642617225646973e+00,1.765635371208190918e+00,1.763411760330200195e+00,1.762177705764770508e+00,1.760307312011718750e+00,1.758698821067810059e+00,1.756875276565551758e+00,1.755374431610107422e+00,1.753577113151550293e+00,1.751937866210937500e+00,1.750372886657714844e+00,1.748666763305664062e+00,1.746820807456970215e+00,1.745526432991027832e+00,1.743926644325256348e+00,1.742678880691528320e+00,1.740460515022277832e+00,1.738990187644958496e+00,1.737785220146179199e+00,1.736376762390136719e+00,1.735273480415344238e+00,1.733922719955444336e+00,1.732222557067871094e+00,1.730917930603027344e+00,1.729683160781860352e+00,1.728259563446044922e+00,1.727026820182800293e+00,1.725600957870483398e+00,1.724058747291564941e+00,1.722868680953979492e+00,1.721297979354858398e+00,1.719945907592773438e+00,1.717746615409851074e+00,1.716489553451538086e+00,1.715290427207946777e+00,1.714227914810180664e+00,1.712499856948852539e+00,1.710701823234558105e+00,1.708665013313293457e+00,1.707104682922363281e+00,1.705288290977478027e+00,1.704317331314086914e+00,1.702226281166076660e+00,1.700809597969055176e+00,1.699378848075866699e+00,1.697646379470825195e+00,1.696097612380981445e+00,1.694222807884216309e+00,1.692516207695007324e+00,1.691087961196899414e+00,1.689503312110900879e+00,1.687395215034484863e+00,1.685189843177795410e+00,1.683704137802124023e+00,1.681914925575256348e+00,1.679766893386840820e+00
1.817186117172241211e+00,1.817298650741577148e+00,1.818168759346008301e+00,1.818515777587890625e+00,1.818982958793640137e+00,1.819652080535888672e+00,1.819871544837951660e+00,1.820306539535522461e+00,1.820640802383422852e+00,1.821092009544372559e+00,1.821047544479370117e+00,1.821560382843017578e+00,1.821795582771301270e+00,1.822162032127380371e+00,1.822090625762939453e+00,1.822346925735473633e+00,1.822162747383117676e+00,1.821879506111145020e+00,1.822042465209960938e+00,1.822173714637756348e+00,1.822247862815856934e+00,1.822216033935546875e+00,1.821544408798217773e+00,1.821624517440795898e+00,1.821327805519104004e+00,1.820975542068481445e+00,1.820557475090026855e+00,1.820412635803222656e+00,1.820063710212707520e+00,1.819679141044616699e+00,1.818890571594238281e+00,1.818082451820373535e+00,1.817567825317382812e+00,1.816581487655639648e+00,1.815687537193298340e+00,1.815070509910583496e+00,1.814239501953125000e+00,1.813156008720397949e+00,1.812339663505554199e+00,1.811085224151611328e+00,1.810048818588256836e+00,1.808459043502807617e+00,1.807061910629272461e+00,1.805860638618469238e+00,1.803821682929992676e+00,1.802313566207885742e+00,1.800678014755249023e+00,1.799089670181274414e+00,1.797486543655395508e+00,1.795769929885864258e+00,1.793757438659667969e+00,1.792612433433532715e+00,1.790765881538391113e+00,1.788125276565551758e+00,1.786990880966186523e+00,1.784404397010803223e+00,1.782731652259826660e+00,1.780559182167053223e+00,1.778782963752746582e+00,1.776894927024841309e+00,1.775172948837280273e+00,1.773413062095642090e+00,1.771392703056335449e+00,1.769282817840576172e+00,1.767855763435363770e+00,1.765739083290100098e+00,1.764405608177185059e+00,1.762408494949340820e+00,1.760606765747070312e+00,1.758665204048156738e+00,1.757105350494384766e+00,1.755575537681579590e+00,1.753732919692993164e+00,1.752015829086303711e+00,1.750159859657287598e+00,1.748978137969970703e+00,1.747473597526550293e+00,1.745740771293640137e+00,1.743874430656433105e+00,1.742434740066528320e+00,1.740986466407775879e+00,1.739464402198791504e+00,1.738013863563537598e+00,1.736743569374084473e+00,1.735387086868286133e+00,1.734426021575927734e+00,1.732860326766967773e+00,1.731496572494506836e+00,1.730119466781616211e+00,1.728443861007690430e+00,1.727046370506286621e+00,1.725634574890136719e+00,1.724614500999450684e+00,1.722943305969238281e+00,1.721605896949768066e+00,1.719724893569946289e+00,1.718335986137390137e+00,1.717043399810791016e+00,1.715306043624877930e+00,1.714031100273132324e+00,1.712353110313415527e+00,1.710579395294189453e+00,1.708618879318237305e+00,1.707089304924011230e+00,1.705537199974060059e+00,1.703649759292602539e+00,1.702019333839416504e+00,1.700993061065673828e+00,1.699182152748107910e+00,1.697286725044250488e+00,1.695787191390991211e+00,1.694123744964599609e+00,1.692172288894653320e+00,1.690249681472778320e+00,1.688641548156738281e+00,1.686990976333618164e+00,1.684869647026062012e+00,1.682977080345153809e+00,1.680743217468261719e+00
1.820480823516845703e+00,1.820999503135681152e+00,1.820729970932006836e+00,1.821622490882873535e+00,1.822252035140991211e+00,1.822536945343017578e+00,1.823164701461791992e+00,1.823409438133239746e+00,1.823696017265319824e+00,1.824521660804748535e+00,1.824775457382202148e+00,1.824658870697021484e+00,1.824758648872375488e+00,1.825049400329589844e+00,1.825231909751892090e+00,1.825472235679626465e+00,1.825677275657653809e+00,1.825921773910522461e+00,1.825673103332519531e+00,1.825804591178894043e+00,1.825782299041748047e+00,1.825456738471984863e+00,1.825303196907043457e+00,1.825266718864440918e+00,1.825022220611572266e+00,1.824412822723388672e+00,1.824371099472045898e+00,1.823764681816101074e+00,1.823467135429382324e+00,1.823183536529541016e+00,1.822396516799926758e+00,1.821950912475585938e+00,1.821232318878173828e+00,1.820037364959716797e+00,1.818987011909484863e+00,1.818424820899963379e+00,1.817824006080627441e+00,1.816846609115600586e+00,1.815503001213073730e+00,1.814424872398376465e+00,1.813227891921997070e+00,1.811615824699401855e+00,1.810702323913574219e+00,1.809219717979431152e+00,1.807785034179687500e+00,1.806113362312316895e+00,1.804396152496337891e+00,1.803007364273071289e+00,1.800764441490173340e+00,1.798804521560668945e+00,1.797453522682189941e+00,1.795434236526489258e+00,1.793693900108337402e+00,1.791682243347167969e+00,1.789751291275024414e+00,1.787892937660217285e+00,1.786260843276977539e+00,1.784336447715759277e+00,1.782314777374267578e+00,1.780355215072631836e+00,1.778026342391967773e+00,1.775861740112304688e+00,1.774201035499572754e+00,1.772415399551391602e+00,1.770534753799438477e+00,1.768796205520629883e+00,1.766892433166503906e+00,1.765228986740112305e+00,1.763464808464050293e+00,1.761257648468017578e+00,1.759855866432189941e+00,1.757767200469970703e+00,1.756460905075073242e+00,1.754613876342773438e+00,1.753018856048583984e+00,1.751149535179138184e+00,1.749513387680053711e+00,1.748206853866577148e+00,1.746643066406250000e+00,1.744887351989746094e+00,1.743386030197143555e+00,1.741829872131347656e+00,1.740740060806274414e+00,1.738875627517700195e+00,1.737703084945678711e+00,1.736493229866027832e+00,1.735236406326293945e+00,1.733755230903625488e+00,1.732394576072692871e+00,1.730658411979675293e+00,1.729417681694030762e+00,1.728041172027587891e+00,1.726591229438781738e+00,1.725408077239990234e+00,1.723759770393371582e+00,1.721901416778564453e+00,1.720452427864074707e+00,1.719021201133728027e+00,1.717495203018188477e+00,1.715874075889587402e+00,1.714076995849609375e+00,1.712266206741333008e+00,1.710736751556396484e+00,1.708772897720336914e+00,1.706987738609313965e+00,1.705670237541198730e+00,1.703735947608947754e+00,1.702232003211975098e+00,1.700705409049987793e+00,1.698969125747680664e+00,1.696904063224792480e+00,1.695505261421203613e+00,1.694017887115478516e+00,1.691669702529907227e+00,1.690132021903991699e+00,1.688562154769897461e+00,1.686811685562133789e+00,1.684598684310913086e+00,1.682643175125122070e+00
1.822243928909301758e+00,1.822479367256164551e+00,1.822850942611694336e+00,1.823328614234924316e+00,1.823690891265869141e+00,1.824146151542663574e+00,1.824509382247924805e+00,1.825224399566650391e+00,1.825565576553344727e+00,1.825580477714538574e+00,1.826221108436584473e+00,1.826738119125366211e+00,1.826594591140747070e+00,1.826864004135131836e+00,1.827107787132263184e+00,1.827589273452758789e+00,1.827433586120605469e+00,1.827354311943054199e+00,1.827704071998596191e+00,1.827566504478454590e+00,1.827573657035827637e+00,1.827208280563354492e+00,1.826740503311157227e+00,1.827011227607727051e+00,1.826673746109008789e+00,1.826227068901062012e+00,1.826037049293518066e+00,1.825931906700134277e+00,1.825264453887939453e+00,1.825021028518676758e+00,1.824237823486328125e+00,1.823723435401916504e+00,1.823293089866638184e+00,1.822329640388488770e+00,1.821346640586853027e+00,1.820888400077819824e+00,1.819705963134765625e+00,1.818189263343811035e+00,1.817343950271606445e+00,1.816565275192260742e+00,1.815125107765197754e+00,1.813834667205810547e+00,1.812330842018127441e+00,1.810958743095397949e+00,1.809775710105895996e+00,1.807575702667236328e+00,1.805630087852478027e+00,1.804511427879333496e+00,1.802646994590759277e+00,1.800537467002868652e+00,1.798941612243652344e+00,1.796872019767761230e+00,1.795439958572387695e+00,1.793570876121520996e+00,1.791569709777832031e+00,1.789801478385925293e+00,1.787804245948791504e+00,1.785718798637390137e+00,1.783985733985900879e+00,1.781817913055419922e+00,1.780258655548095703e+00,1.777887821197509766e+00,1.776067018508911133e+00,1.774202704429626465e+00,1.772230029106140137e+00,1.770441412925720215e+00,1.768370389938354492e+00,1.766841650009155273e+00,1.764782190322875977e+00,1.762714743614196777e+00,1.761014461517333984e+00,1.759524345397949219e+00,1.757798314094543457e+00,1.756150603294372559e+00,1.754556417465209961e+00,1.752774953842163086e+00,1.751121640205383301e+00,1.749523282051086426e+00,1.748070001602172852e+00,1.746248006820678711e+00,1.744696974754333496e+00,1.743150591850280762e+00,1.742063164710998535e+00,1.740854024887084961e+00,1.739215254783630371e+00,1.738090038299560547e+00,1.736760377883911133e+00,1.735252499580383301e+00,1.734043836593627930e+00,1.732431054115295410e+00,1.730944991111755371e+00,1.729247808456420898e+00,1.727664351463317871e+00,1.726613759994506836e+00,1.725110054016113281e+00,1.723346471786499023e+00,1.721869468688964844e+00,1.720209360122680664e+00,1.718738079071044922e+00,1.717282414436340332e+00,1.715685129165649414e+00,1.713688135147094727e+00,1.712103843688964844e+00,1.710354447364807129e+00,1.708577156066894531e+00,1.706598997116088867e+00,1.704857349395751953e+00,1.703411221504211426e+00,1.701514244079589844e+00,1.700064063072204590e+00,1.698360800743103027e+00,1.696294307708740234e+00,1.694985866546630859e+00,1.693131804466247559e+00,1.691238284111022949e+00,1.689509272575378418e+00,1.687947034835815430e+00,1.685578942298889160e+00,1.683578610420227051e+00
1.825296282768249512e+00,1.825273990631103516e+00,1.825559377670288086e+00,1.826384305953979492e+00,1.826963663101196289e+00,1.827095389366149902e+00,1.827799320220947266e+00,1.828318715095520020e+00,1.828459262847900391e+00,1.829192042350769043e+00,1.828901529312133789e+00,1.829591155052185059e+00,1.829849481582641602e+00,1.829716324806213379e+00,1.830117702484130859e+00,1.830146789550781250e+00,1.830600142478942871e+00,1.830533981323242188e+00,1.830432415008544922e+00,1.830934166908264160e+00,1.830804467201232910e+00,1.830513477325439453e+00,1.830304980278015137e+00,1.830700397491455078e+00,1.830557823181152344e+00,1.830108284950256348e+00,1.829201579093933105e+00,1.828841686248779297e+00,1.828700184822082520e+00,1.828004598617553711e+00,1.827570676803588867e+00,1.827089667320251465e+00,1.826367497444152832e+00,1.825751185417175293e+00,1.824609637260437012e+00,1.823920845985412598e+00,1.823581933975219727e+00,1.822189331054687500e+00,1.820616722106933594e+00,1.819686055183410645e+00,1.818157315254211426e+00,1.817025065422058105e+00,1.815760374069213867e+00,1.814269304275512695e+00,1.812974214553833008e+00,1.811034560203552246e+00,1.809126853942871094e+00,1.807471275329589844e+00,1.806356787681579590e+00,1.804028630256652832e+00,1.802360057830810547e+00,1.800309538841247559e+00,1.798440814018249512e+00,1.796364903450012207e+00,1.794876575469970703e+00,1.793247461318969727e+00,1.791252613067626953e+00,1.788783788681030273e+00,1.787081480026245117e+00,1.784915566444396973e+00,1.783101320266723633e+00,1.780788421630859375e+00,1.778772950172424316e+00,1.777047514915466309e+00,1.774946808815002441e+00,1.772837281227111816e+00,1.771033644676208496e+00,1.768962740898132324e+00,1.767577648162841797e+00,1.765699744224548340e+00,1.763830184936523438e+00,1.761450171470642090e+00,1.759844779968261719e+00,1.757979393005371094e+00,1.756699323654174805e+00,1.755083084106445312e+00,1.753454566001892090e+00,1.751352071762084961e+00,1.749984264373779297e+00,1.748427271842956543e+00,1.747066736221313477e+00,1.745545148849487305e+00,1.744348526000976562e+00,1.742773771286010742e+00,1.741719365119934082e+00,1.739838361740112305e+00,1.738763451576232910e+00,1.736971974372863770e+00,1.735846757888793945e+00,1.734488844871520996e+00,1.732803821563720703e+00,1.731283307075500488e+00,1.729242682456970215e+00,1.728363037109375000e+00,1.727141737937927246e+00,1.725113034248352051e+00,1.723940968513488770e+00,1.721974134445190430e+00,1.720404267311096191e+00,1.719076752662658691e+00,1.717491269111633301e+00,1.715048193931579590e+00,1.713299155235290527e+00,1.711609721183776855e+00,1.709853291511535645e+00,1.707811832427978516e+00,1.706375956535339355e+00,1.704680442810058594e+00,1.703153610229492188e+00,1.700750946998596191e+00,1.699268341064453125e+00,1.697710990905761719e+00,1.695909261703491211e+00,1.694165468215942383e+00,1.692439556121826172e+00,1.690828204154968262e+00,1.688869118690490723e+00,1.686740636825561523e+00,1.684485435485839844e+00
1.826823234558105469e+00,1.827178359031677246e+00,1.827670454978942871e+00,1.828140258789062500e+00,1.828826546669006348e+00,1.828948140144348145e+00,1.829422831535339355e+00,1.829715371131896973e+00,1.830292820930480957e+00,1.830878019332885742e+00,1.830661296844482422e+00,1.830870270729064941e+00,1.831404209136962891e+00,1.831925153732299805e+00,1.832271337509155273e+00,1.832280278205871582e+00,1.832171797752380371e+00,1.832485437393188477e+00,1.832590103149414062e+00,1.832400560379028320e+00,1.832372784614562988e+00,1.832193017005920410e+00,1.831940770149230957e+00,1.831997632980346680e+00,1.832013249397277832e+00,1.831590175628662109e+00,1.831068873405456543e+00,1.831082224845886230e+00,1.831068873405456543e+00,1.830545425415039062e+00,1.829470515251159668e+00,1.829473495483398438e+00,1.828554868698120117e+00,1.827382802963256836e+00,1.827002048492431641e+00,1.826163530349731445e+00,1.825171113014221191e+00,1.824087023735046387e+00,1.822919845581054688e+00,1.821967124938964844e+00,1.820615887641906738e+00,1.818921327590942383e+00,1.817759990692138672e+00,1.816188097000122070e+00,1.814733386039733887e+00,1.812995314598083496e+00,1.811329483985900879e+00,1.809622645378112793e+00,1.808403134346008301e+00,1.805931687355041504e+00,1.803885579109191895e+00,1.802481651306152344e+00,1.800098061561584473e+00,1.798398017883300781e+00,1.796956896781921387e+00,1.794689774513244629e+00,1.793009638786315918e+00,1.790651917457580566e+00,1.788799762725830078e+00,1.787225246429443359e+00,1.785150170326232910e+00,1.782975077629089355e+00,1.780638813972473145e+00,1.778891444206237793e+00,1.776951909065246582e+00,1.774980783462524414e+00,1.773172020912170410e+00,1.770690798759460449e+00,1.768820405006408691e+00,1.766910791397094727e+00,1.765343904495239258e+00,1.763465166091918945e+00,1.761548042297363281e+00,1.759404420852661133e+00,1.758083105087280273e+00,1.756575345993041992e+00,1.754782915115356445e+00,1.752753257751464844e+00,1.751314997673034668e+00,1.749904513359069824e+00,1.748679161071777344e+00,1.746873140335083008e+00,1.745625376701354980e+00,1.743963241577148438e+00,1.742388606071472168e+00,1.741152524948120117e+00,1.739719867706298828e+00,1.738976001739501953e+00,1.737156629562377930e+00,1.735593080520629883e+00,1.734432339668273926e+00,1.732830762863159180e+00,1.731555342674255371e+00,1.729552984237670898e+00,1.727978467941284180e+00,1.726047992706298828e+00,1.725018858909606934e+00,1.723480582237243652e+00,1.721456766128540039e+00,1.720167398452758789e+00,1.718612313270568848e+00,1.716318368911743164e+00,1.714783191680908203e+00,1.713067293167114258e+00,1.711271286010742188e+00,1.709289789199829102e+00,1.707171320915222168e+00,1.705767869949340820e+00,1.704251170158386230e+00,1.702405095100402832e+00,1.700696110725402832e+00,1.698190569877624512e+00,1.696810364723205566e+00,1.695335268974304199e+00,1.693425416946411133e+00,1.691799759864807129e+00,1.690130710601806641e+00,1.687762975692749023e+00,1.685826539993286133e+00
1.829663276672363281e+00,1.829748392105102539e+00,1.830326795578002930e+00,1.831046700477600098e+00,1.830931425094604492e+00,1.831418037414550781e+00,1.832047581672668457e+00,1.832503676414489746e+00,1.832963347434997559e+00,1.833212733268737793e+00,1.833276629447937012e+00,1.833686113357543945e+00,1.834216594696044922e+00,1.834334492683410645e+00,1.834386825561523438e+00,1.834574580192565918e+00,1.835059762001037598e+00,1.835066795349121094e+00,1.835183501243591309e+00,1.835357308387756348e+00,1.835370182991027832e+00,1.835487246513366699e+00,1.835461139678955078e+00,1.835437178611755371e+00,1.835227012634277344e+00,1.834894418716430664e+00,1.834356188774108887e+00,1.833793401718139648e+00,1.833452105522155762e+00,1.833151221275329590e+00,1.832635998725891113e+00,1.831977248191833496e+00,1.831438183784484863e+00,1.830676794052124023e+00,1.829700946807861328e+00,1.829325437545776367e+00,1.828355669975280762e+00,1.827349781990051270e+00,1.826188683509826660e+00,1.824556589126586914e+00,1.823749780654907227e+00,1.822288274765014648e+00,1.820315241813659668e+00,1.819156885147094727e+00,1.817360043525695801e+00,1.816170811653137207e+00,1.814099669456481934e+00,1.812723278999328613e+00,1.810796737670898438e+00,1.808688759803771973e+00,1.806967854499816895e+00,1.805240988731384277e+00,1.803521513938903809e+00,1.801032185554504395e+00,1.799212694168090820e+00,1.797349572181701660e+00,1.795603752136230469e+00,1.793504357337951660e+00,1.791411995887756348e+00,1.789788484573364258e+00,1.787700772285461426e+00,1.785485863685607910e+00,1.783669471740722656e+00,1.781637787818908691e+00,1.779150962829589844e+00,1.776848554611206055e+00,1.775252580642700195e+00,1.772997379302978516e+00,1.771182417869567871e+00,1.769252777099609375e+00,1.767249584197998047e+00,1.765347480773925781e+00,1.763491153717041016e+00,1.761461257934570312e+00,1.760223031044006348e+00,1.758559465408325195e+00,1.756879925727844238e+00,1.755182504653930664e+00,1.753377795219421387e+00,1.752234339714050293e+00,1.750387310981750488e+00,1.748898029327392578e+00,1.747473597526550293e+00,1.745973467826843262e+00,1.744837284088134766e+00,1.743168711662292480e+00,1.741448998451232910e+00,1.740076899528503418e+00,1.738582015037536621e+00,1.737250208854675293e+00,1.735834956169128418e+00,1.734259128570556641e+00,1.732985854148864746e+00,1.731523156166076660e+00,1.729255795478820801e+00,1.727750658988952637e+00,1.726499915122985840e+00,1.725057482719421387e+00,1.723319053649902344e+00,1.721794843673706055e+00,1.720203280448913574e+00,1.718170642852783203e+00,1.716122031211853027e+00,1.714099287986755371e+00,1.712744712829589844e+00,1.710782766342163086e+00,1.709052681922912598e+00,1.707349181175231934e+00,1.705235242843627930e+00,1.703644394874572754e+00,1.702154636383056641e+00,1.700106024742126465e+00,1.698359251022338867e+00,1.697078824043273926e+00,1.694948077201843262e+00,1.692847013473510742e+00,1.691491723060607910e+00,1.689424633979797363e+00,1.687707781791687012e+00
1.831074476242065430e+00,1.831433892250061035e+00,1.831651329994201660e+00,1.832348942756652832e+00,1.832998991012573242e+00,1.833085894584655762e+00,1.833704352378845215e+00,1.834026455879211426e+00,1.834097027778625488e+00,1.834855079650878906e+00,1.835048794746398926e+00,1.835352659225463867e+00,1.835897922515869141e+00,1.836512923240661621e+00,1.836393475532531738e+00,1.836091279983520508e+00,1.836599826812744141e+00,1.836877703666687012e+00,1.836566209793090820e+00,1.836892127990722656e+00,1.836817383766174316e+00,1.837007999420166016e+00,1.836585521697998047e+00,1.836678624153137207e+00,1.836209774017333984e+00,1.836410403251647949e+00,1.835950016975402832e+00,1.835858225822448730e+00,1.835508942604064941e+00,1.835147738456726074e+00,1.834166288375854492e+00,1.834053158760070801e+00,1.833190202713012695e+00,1.832538127899169922e+00,1.831616640090942383e+00,1.830721735954284668e+00,1.829956173896789551e+00,1.828685998916625977e+00,1.827432513236999512e+00,1.826491713523864746e+00,1.825201392173767090e+00,1.823907852172851562e+00,1.822583675384521484e+00,1.821075201034545898e+00,1.819383740425109863e+00,1.817476987838745117e+00,1.816187500953674316e+00,1.814272880554199219e+00,1.812616348266601562e+00,1.810452222824096680e+00,1.808742761611938477e+00,1.806779265403747559e+00,1.805151939392089844e+00,1.802998781204223633e+00,1.801324963569641113e+00,1.799269080162048340e+00,1.797382354736328125e+00,1.795306444168090820e+00,1.793668627738952637e+00,1.791600942611694336e+00,1.789892911911010742e+00,1.787074685096740723e+00,1.785515308380126953e+00,1.783392548561096191e+00,1.781460881233215332e+00,1.778680205345153809e+00,1.776737213134765625e+00,1.774981141090393066e+00,1.773305773735046387e+00,1.770685076713562012e+00,1.768612504005432129e+00,1.767199277877807617e+00,1.765275716781616211e+00,1.763192176818847656e+00,1.761610746383666992e+00,1.759980320930480957e+00,1.758031845092773438e+00,1.756423592567443848e+00,1.754966259002685547e+00,1.753087759017944336e+00,1.751825332641601562e+00,1.750237822532653809e+00,1.748523473739624023e+00,1.747324347496032715e+00,1.745796442031860352e+00,1.744483113288879395e+00,1.743213057518005371e+00,1.741332530975341797e+00,1.740332365036010742e+00,1.738411307334899902e+00,1.736989259719848633e+00,1.735992312431335449e+00,1.734152674674987793e+00,1.732682943344116211e+00,1.730733990669250488e+00,1.728855848312377930e+00,1.727558612823486328e+00,1.726126551628112793e+00,1.724547743797302246e+00,1.722881555557250977e+00,1.721059918403625488e+00,1.719207048416137695e+00,1.717751026153564453e+00,1.715582966804504395e+00,1.713938117027282715e+00,1.712035059928894043e+00,1.710461854934692383e+00,1.708712577819824219e+00,1.706588387489318848e+00,1.704835295677185059e+00,1.702912449836730957e+00,1.701153516769409180e+00,1.699279308319091797e+00,1.697759628295898438e+00,1.695909738540649414e+00,1.694432377815246582e+00,1.692505955696105957e+00,1.690443754196166992e+00,1.688415646553039551e+00
1.833769679069519043e+00,1.833860754966735840e+00,1.834350585937500000e+00,1.834572553634643555e+00,1.835227370262145996e+00,1.835849523544311523e+00,1.836095929145812988e+00,1.836475372314453125e+00,1.836607217788696289e+00,1.837146759033203125e+00,1.837430357933044434e+00,1.838114380836486816e+00,1.838277935981750488e+00,1.838817715644836426e+00,1.839130043983459473e+00,1.839057683944702148e+00,1.839356064796447754e+00,1.839754223823547363e+00,1.839273095130920410e+00,1.839576005935668945e+00,1.839829564094543457e+00,1.839959502220153809e+00,1.839471697807312012e+00,1.839549303054809570e+00,1.839133977890014648e+00,1.839149236679077148e+00,1.839106917381286621e+00,1.838463783264160156e+00,1.838278532028198242e+00,1.837610244750976562e+00,1.837121844291687012e+00,1.836429953575134277e+00,1.836175680160522461e+00,1.835336685180664062e+00,1.834413290023803711e+00,1.833784699440002441e+00,1.832878828048706055e+00,1.831845521926879883e+00,1.830245018005371094e+00,1.829215168952941895e+00,1.828393816947937012e+00,1.826773166656494141e+00,1.825316071510314941e+00,1.824088096618652344e+00,1.822382330894470215e+00,1.820432424545288086e+00,1.818989038467407227e+00,1.817366838455200195e+00,1.815174579620361328e+00,1.813311815261840820e+00,1.811695337295532227e+00,1.809876203536987305e+00,1.807801246643066406e+00,1.805840134620666504e+00,1.804259181022644043e+00,1.801965117454528809e+00,1.800032734870910645e+00,1.798231959342956543e+00,1.795938014984130859e+00,1.794554114341735840e+00,1.792504429817199707e+00,1.790181875228881836e+00,1.788477182388305664e+00,1.786057829856872559e+00,1.784236073493957520e+00,1.781807661056518555e+00,1.779386639595031738e+00,1.776997089385986328e+00,1.775314211845397949e+00,1.773021936416625977e+00,1.771019220352172852e+00,1.768841505050659180e+00,1.766751527786254883e+00,1.765299320220947266e+00,1.763603687286376953e+00,1.761886954307556152e+00,1.760108828544616699e+00,1.758067250251770020e+00,1.756698131561279297e+00,1.754891872406005859e+00,1.753673911094665527e+00,1.752135157585144043e+00,1.750168800354003906e+00,1.748909235000610352e+00,1.747457146644592285e+00,1.745941877365112305e+00,1.744647502899169922e+00,1.742794990539550781e+00,1.741809725761413574e+00,1.740131616592407227e+00,1.738596081733703613e+00,1.737008452415466309e+00,1.736099004745483398e+00,1.733862161636352539e+00,1.732111096382141113e+00,1.730536222457885742e+00,1.729169964790344238e+00,1.727046370506286621e+00,1.725740194320678711e+00,1.724509954452514648e+00,1.722506642341613770e+00,1.720908880233764648e+00,1.718635201454162598e+00,1.717108964920043945e+00,1.715048074722290039e+00,1.713606715202331543e+00,1.711728334426879883e+00,1.709558844566345215e+00,1.707988500595092773e+00,1.706012725830078125e+00,1.704417943954467773e+00,1.702612638473510742e+00,1.700770497322082520e+00,1.699028134346008301e+00,1.697282433509826660e+00,1.695036888122558594e+00,1.693769335746765137e+00,1.692098855972290039e+00,1.689935326576232910e+00
1.835521817207336426e+00,1.835559487342834473e+00,1.836327433586120605e+00,1.836342453956604004e+00,1.836719870567321777e+00,1.837641477584838867e+00,1.837477803230285645e+00,1.838418126106262207e+00,1.838376998901367188e+00,1.838455200195312500e+00,1.839155912399291992e+00,1.839477896690368652e+00,1.840073704719543457e+00,1.840366721153259277e+00,1.840996026992797852e+00,1.840819954872131348e+00,1.841048598289489746e+00,1.841370463371276855e+00,1.841087818145751953e+00,1.841489076614379883e+00,1.841675281524658203e+00,1.841544866561889648e+00,1.841504812240600586e+00,1.841350078582763672e+00,1.841199874877929688e+00,1.840562820434570312e+00,1.840916872024536133e+00,1.840462684631347656e+00,1.840002655982971191e+00,1.839852690696716309e+00,1.838739037513732910e+00,1.838499903678894043e+00,1.837477803230285645e+00,1.836898803710937500e+00,1.835906982421875000e+00,1.835251688957214355e+00,1.834415555000305176e+00,1.833322405815124512e+00,1.832079768180847168e+00,1.831054925918579102e+00,1.830094575881958008e+00,1.828724145889282227e+00,1.826819896697998047e+00,1.825630903244018555e+00,1.824156284332275391e+00,1.822321295738220215e+00,1.820668697357177734e+00,1.818902492523193359e+00,1.817073941230773926e+00,1.815067172050476074e+00,1.813053369522094727e+00,1.811529755592346191e+00,1.809486389160156250e+00,1.807670712471008301e+00,1.806078076362609863e+00,1.803961515426635742e+00,1.801725745201110840e+00,1.799988865852355957e+00,1.797860026359558105e+00,1.796119213104248047e+00,1.794014811515808105e+00,1.792006254196166992e+00,1.790164470672607422e+00,1.787810325622558594e+00,1.785576462745666504e+00,1.783506751060485840e+00,1.781586289405822754e+00,1.779091954231262207e+00,1.776751160621643066e+00,1.774572849273681641e+00,1.772556900978088379e+00,1.770857214927673340e+00,1.768708705902099609e+00,1.766688823699951172e+00,1.764864802360534668e+00,1.763496994972229004e+00,1.761594414710998535e+00,1.759613633155822754e+00,1.757944703102111816e+00,1.756211757659912109e+00,1.754746913909912109e+00,1.752680540084838867e+00,1.751477122306823730e+00,1.750299930572509766e+00,1.748971223831176758e+00,1.747174739837646484e+00,1.745624303817749023e+00,1.744662523269653320e+00,1.742783308029174805e+00,1.741314053535461426e+00,1.739710211753845215e+00,1.738097190856933594e+00,1.736960053443908691e+00,1.735165476799011230e+00,1.733451366424560547e+00,1.731630206108093262e+00,1.730194807052612305e+00,1.728001117706298828e+00,1.726908206939697266e+00,1.725628852844238281e+00,1.723496079444885254e+00,1.721925973892211914e+00,1.720011711120605469e+00,1.718018770217895508e+00,1.716526031494140625e+00,1.714871048927307129e+00,1.713239431381225586e+00,1.710869193077087402e+00,1.708843588829040527e+00,1.707063436508178711e+00,1.705456376075744629e+00,1.703490495681762695e+00,1.701527714729309082e+00,1.699896812438964844e+00,1.698585033416748047e+00,1.697017669677734375e+00,1.694825053215026855e+00,1.692869067192077637e+00,1.690781831741333008e+00
1.837666034698486328e+00,1.837773084640502930e+00,1.838091373443603516e+00,1.838848233222961426e+00,1.839056730270385742e+00,1.839795231819152832e+00,1.840010881423950195e+00,1.840261578559875488e+00,1.840652823448181152e+00,1.840930819511413574e+00,1.841682791709899902e+00,1.842281341552734375e+00,1.842670083045959473e+00,1.842903375625610352e+00,1.843021035194396973e+00,1.843326807022094727e+00,1.843750000000000000e+00,1.843677878379821777e+00,1.843677520751953125e+00,1.844246387481689453e+00,1.844402074813842773e+00,1.844219565391540527e+00,1.844295382499694824e+00,1.844133377075195312e+00,1.843977332115173340e+00,1.843572258949279785e+00,1.843366503715515137e+00,1.843024134635925293e+00,1.842820286750793457e+00,1.842356562614440918e+00,1.841939330101013184e+00,1.841127753257751465e+00,1.840628504753112793e+00,1.839594364166259766e+00,1.838700175285339355e+00,1.837955713272094727e+00,1.837196350097656250e+00,1.835905432701110840e+00,1.834921479225158691e+00,1.833441019058227539e+00,1.832234263420104980e+00,1.831186175346374512e+00,1.829654097557067871e+00,1.828043818473815918e+00,1.826881289482116699e+00,1.825385212898254395e+00,1.823510527610778809e+00,1.821347832679748535e+00,1.819558143615722656e+00,1.817736029624938965e+00,1.815902113914489746e+00,1.814423918724060059e+00,1.812684535980224609e+00,1.810350775718688965e+00,1.808547973632812500e+00,1.806824207305908203e+00,1.804292917251586914e+00,1.802349925041198730e+00,1.800598144531250000e+00,1.798213958740234375e+00,1.796506047248840332e+00,1.794402956962585449e+00,1.792641520500183105e+00,1.790330171585083008e+00,1.788159370422363281e+00,1.785939335823059082e+00,1.783919930458068848e+00,1.781864881515502930e+00,1.779220223426818848e+00,1.776861071586608887e+00,1.774664282798767090e+00,1.772848010063171387e+00,1.771065950393676758e+00,1.768897056579589844e+00,1.767130017280578613e+00,1.765007972717285156e+00,1.763310194015502930e+00,1.761357188224792480e+00,1.759773373603820801e+00,1.758314490318298340e+00,1.756939768791198730e+00,1.754919052124023438e+00,1.753295302391052246e+00,1.751845717430114746e+00,1.750720024108886719e+00,1.748921275138854980e+00,1.747267365455627441e+00,1.745935082435607910e+00,1.744363069534301758e+00,1.742720603942871094e+00,1.741298913955688477e+00,1.739851832389831543e+00,1.738187789916992188e+00,1.736565828323364258e+00,1.734926342964172363e+00,1.732977628707885742e+00,1.731317281723022461e+00,1.729626655578613281e+00,1.728097677230834961e+00,1.726735711097717285e+00,1.725096702575683594e+00,1.723322629928588867e+00,1.721956253051757812e+00,1.719982028007507324e+00,1.718196988105773926e+00,1.716189265251159668e+00,1.714599609375000000e+00,1.712858200073242188e+00,1.710891723632812500e+00,1.708931803703308105e+00,1.707183957099914551e+00,1.705241322517395020e+00,1.703579783439636230e+00,1.701738715171813965e+00,1.699691772460937500e+00,1.698013544082641602e+00,1.696488142013549805e+00,1.694655776023864746e+00,1.692484855651855469e+00
