8.610175251960754395e-01,8.607410788536071777e-01,8.601416349411010742e-01,8.601375222206115723e-01,8.592516779899597168e-01,8.583729863166809082e-01,8.575661778450012207e-01,8.570277094841003418e-01,8.559058308601379395e-01,8.544848561286926270e-01,8.535795807838439941e-01,8.527563214302062988e-01,8.518574833869934082e-01,8.502588868141174316e-01,8.491258621215820312e-01,8.480145335197448730e-01,8.471520543098449707e-01,8.456200361251831055e-01,8.446490168571472168e-01,8.437703847885131836e-01,8.430100083351135254e-01,8.419618010520935059e-01,8.413388133049011230e-01,8.407383561134338379e-01,8.399075865745544434e-01,8.388628959655761719e-01,8.382572531700134277e-01,8.379074335098266602e-01,8.373768925666809082e-01,8.369998931884765625e-01,8.367492556571960449e-01,8.368600606918334961e-01,8.363057374954223633e-01,8.353002667427062988e-01,8.347468972206115723e-01,8.344289064407348633e-01,8.344204425811767578e-01,8.334001302719116211e-01,8.330640792846679688e-01,8.325951695442199707e-01,8.322188854217529297e-01,8.313800692558288574e-01,8.317903876304626465e-01,8.317683339118957520e-01,8.323177695274353027e-01,8.332598805427551270e-01,8.354213833808898926e-01,8.372718095779418945e-01,8.384500145912170410e-01,8.409507870674133301e-01,8.433390855789184570e-01,8.464999794960021973e-01,8.483477234840393066e-01,8.540783524513244629e-01,8.579626679420471191e-01,8.636271357536315918e-01,8.661453127861022949e-01,8.723553419113159180e-01,8.755277395248413086e-01,8.799694776535034180e-01,8.833642601966857910e-01,8.897426128387451172e-01,8.924242854118347168e-01,8.957270979881286621e-01,8.992119431495666504e-01,9.009876847267150879e-01,9.034345149993896484e-01,9.021390676498413086e-01,9.048052430152893066e-01,9.018676280975341797e-01,9.011096358299255371e-01,8.968020081520080566e-01,8.966380953788757324e-01,8.938481211662292480e-01,8.904775977134704590e-01,8.858603239059448242e-01,8.847212195396423340e-01,8.821128010749816895e-01,8.805125951766967773e-01,8.774773478507995605e-01,8.784223198890686035e-01,8.827695846557617188e-01,8.835969567298889160e-01,8.852295875549316406e-01,8.873952627182006836e-01,8.934939503669738770e-01,8.973937630653381348e-01,9.012873172760009766e-01,9.066891074180603027e-01,9.186335802078247070e-01,9.250947237014770508e-01,9.332774877548217773e-01,9.440249800682067871e-01,9.571435451507568359e-01,9.705900549888610840e-01,9.782924056053161621e-01,9.937173128128051758e-01,1.001534938812255859e+00,1.013549208641052246e+00,1.015850186347961426e+00,1.025333404541015625e+00,1.029248237609863281e+00,1.035194635391235352e+00,1.036340236663818359e+00,1.038242697715759277e+00,1.041342020034790039e+00,1.042752027511596680e+00,1.043844461441040039e+00,1.043939828872680664e+00,1.046084880828857422e+00,1.045004606246948242e+00,1.045666456222534180e+00,1.043841123580932617e+00,1.042740583419799805e+00,1.041163563728332520e+00,1.040665745735168457e+00,1.039690136909484863e+00,1.039923191070556641e+00,1.038913965225219727e+00
8.850986361503601074e-01,8.845449686050415039e-01,8.837414383888244629e-01,8.836029171943664551e-01,8.828164935111999512e-01,8.813976049423217773e-01,8.805111646652221680e-01,8.801539540290832520e-01,8.788052201271057129e-01,8.769232034683227539e-01,8.757001757621765137e-01,8.752366900444030762e-01,8.738135099411010742e-01,8.717319965362548828e-01,8.705095648765563965e-01,8.697959780693054199e-01,8.684016466140747070e-01,8.664165735244750977e-01,8.652846813201904297e-01,8.647185564041137695e-01,8.635873794555664062e-01,8.622373342514038086e-01,8.614677786827087402e-01,8.612192869186401367e-01,8.602737784385681152e-01,8.592416644096374512e-01,8.585155010223388672e-01,8.584924340248107910e-01,8.577449917793273926e-01,8.574600219726562500e-01,8.569052815437316895e-01,8.575829267501831055e-01,8.569116592407226562e-01,8.559830188751220703e-01,8.553181290626525879e-01,8.556494712829589844e-01,8.551919460296630859e-01,8.545536398887634277e-01,8.538895249366760254e-01,8.542433381080627441e-01,8.534936308860778809e-01,8.537041544914245605e-01,8.538361191749572754e-01,8.545634150505065918e-01,8.548973202705383301e-01,8.570597767829895020e-01,8.588219881057739258e-01,8.609585165977478027e-01,8.628839850425720215e-01,8.657434582710266113e-01,8.691595196723937988e-01,8.713456988334655762e-01,8.752872943878173828e-01,8.798264265060424805e-01,8.855661153793334961e-01,8.893805742263793945e-01,8.948682546615600586e-01,8.981623053550720215e-01,9.050162434577941895e-01,9.074137210845947266e-01,9.139854907989501953e-01,9.163364768028259277e-01,9.208690524101257324e-01,9.220896959304809570e-01,9.260103106498718262e-01,9.258323907852172852e-01,9.282714128494262695e-01,9.273574948310852051e-01,9.282460808753967285e-01,9.257346987724304199e-01,9.237169623374938965e-01,9.202141761779785156e-01,9.184218645095825195e-01,9.161995649337768555e-01,9.121501445770263672e-01,9.075368642807006836e-01,9.043698906898498535e-01,9.027933478355407715e-01,9.005019664764404297e-01,8.957785964012145996e-01,8.970069289207458496e-01,9.009246230125427246e-01,9.015241861343383789e-01,9.001244306564331055e-01,9.027166962623596191e-01,9.082875847816467285e-01,9.123290181159973145e-01,9.133589267730712891e-01,9.215418100357055664e-01,9.306496381759643555e-01,9.388371109962463379e-01,9.439593553543090820e-01,9.545135498046875000e-01,9.653420448303222656e-01,9.771609306335449219e-01,9.836781024932861328e-01,9.948418736457824707e-01,1.002255439758300781e+00,1.010899901390075684e+00,1.013560056686401367e+00,1.021520018577575684e+00,1.027719020843505859e+00,1.031514286994934082e+00,1.034926772117614746e+00,1.037147998809814453e+00,1.041196465492248535e+00,1.041720986366271973e+00,1.043621182441711426e+00,1.043799877166748047e+00,1.045411109924316406e+00,1.044240236282348633e+00,1.044289946556091309e+00,1.042272448539733887e+00,1.040943741798400879e+00,1.039365530014038086e+00,1.037763357162475586e+00,1.037333250045776367e+00,1.037727475166320801e+00,1.036878228187561035e+00
9.186220169067382812e-01,9.182863235473632812e-01,9.170269966125488281e-01,9.170106649398803711e-01,9.156378507614135742e-01,9.144181609153747559e-01,9.132534265518188477e-01,9.127201437950134277e-01,9.108178615570068359e-01,9.091933369636535645e-01,9.080897569656372070e-01,9.072863459587097168e-01,9.051423668861389160e-01,9.034278988838195801e-01,9.020751714706420898e-01,9.010832905769348145e-01,8.990082144737243652e-01,8.971887230873107910e-01,8.958370089530944824e-01,8.951557874679565430e-01,8.933185935020446777e-01,8.921571969985961914e-01,8.913394808769226074e-01,8.909101486206054688e-01,8.895153999328613281e-01,8.887436985969543457e-01,8.878855109214782715e-01,8.878754377365112305e-01,8.870378732681274414e-01,8.868547081947326660e-01,8.865967392921447754e-01,8.870439529418945312e-01,8.863047957420349121e-01,8.856614828109741211e-01,8.855162858963012695e-01,8.852693438529968262e-01,8.852521777153015137e-01,8.847419023513793945e-01,8.850037455558776855e-01,8.852043747901916504e-01,8.853912353515625000e-01,8.855115771293640137e-01,8.863781094551086426e-01,8.872656822204589844e-01,8.886566758155822754e-01,8.910947442054748535e-01,8.936365246772766113e-01,8.965683579444885254e-01,8.996077179908752441e-01,9.026876688003540039e-01,9.060397744178771973e-01,9.091881513595581055e-01,9.140447378158569336e-01,9.181017279624938965e-01,9.236145615577697754e-01,9.284194707870483398e-01,9.342533946037292480e-01,9.359173774719238281e-01,9.418128132820129395e-01,9.439660310745239258e-01,9.507064819335937500e-01,9.508528113365173340e-01,9.546408653259277344e-01,9.557936191558837891e-01,9.594175815582275391e-01,9.579309225082397461e-01,9.596804380416870117e-01,9.578433036804199219e-01,9.584661722183227539e-01,9.554454088211059570e-01,9.530894160270690918e-01,9.496103525161743164e-01,9.474958181381225586e-01,9.453012347221374512e-01,9.411158561706542969e-01,9.365125298500061035e-01,9.327272772789001465e-01,9.308028221130371094e-01,9.261199235916137695e-01,9.219822883605957031e-01,9.210255742073059082e-01,9.238764643669128418e-01,9.216387271881103516e-01,9.209973812103271484e-01,9.221893548965454102e-01,9.274930357933044434e-01,9.286884665489196777e-01,9.310864210128784180e-01,9.374270439147949219e-01,9.447832107543945312e-01,9.508081674575805664e-01,9.561882615089416504e-01,9.649931192398071289e-01,9.751777648925781250e-01,9.838601350784301758e-01,9.909455776214599609e-01,1.000524520874023438e+00,1.007459878921508789e+00,1.013556957244873047e+00,1.017123222351074219e+00,1.024162530899047852e+00,1.029301524162292480e+00,1.031002402305603027e+00,1.033995509147644043e+00,1.034849524497985840e+00,1.039002656936645508e+00,1.039530873298645020e+00,1.040917754173278809e+00,1.040416479110717773e+00,1.042540788650512695e+00,1.040662407875061035e+00,1.041278481483459473e+00,1.038532972335815430e+00,1.037644624710083008e+00,1.035971403121948242e+00,1.035134792327880859e+00,1.034427285194396973e+00,1.034592986106872559e+00,1.034293651580810547e+00
9.424507617950439453e-01,9.418227672576904297e-01,9.411726593971252441e-01,9.409621357917785645e-01,9.395601153373718262e-01,9.383395314216613770e-01,9.371286630630493164e-01,9.364109635353088379e-01,9.347500801086425781e-01,9.333171844482421875e-01,9.320130944252014160e-01,9.312551021575927734e-01,9.292459487915039062e-01,9.274303913116455078e-01,9.259759783744812012e-01,9.252983927726745605e-01,9.234240055084228516e-01,9.215480685234069824e-01,9.203937649726867676e-01,9.197562932968139648e-01,9.182286262512207031e-01,9.169593453407287598e-01,9.159600734710693359e-01,9.156292676925659180e-01,9.144783020019531250e-01,9.135320186614990234e-01,9.130851030349731445e-01,9.129877090454101562e-01,9.122479557991027832e-01,9.120207428932189941e-01,9.115483760833740234e-01,9.120584130287170410e-01,9.115247130393981934e-01,9.108068943023681641e-01,9.105119109153747559e-01,9.108096361160278320e-01,9.107697010040283203e-01,9.101923704147338867e-01,9.103577733039855957e-01,9.110040068626403809e-01,9.112399220466613770e-01,9.111360311508178711e-01,9.124418497085571289e-01,9.131376743316650391e-01,9.153530001640319824e-01,9.171417951583862305e-01,9.199755787849426270e-01,9.223861694335937500e-01,9.257458448410034180e-01,9.278871417045593262e-01,9.318791031837463379e-01,9.339604973793029785e-01,9.388642311096191406e-01,9.428103566169738770e-01,9.475221633911132812e-01,9.506659507751464844e-01,9.540982246398925781e-01,9.561906456947326660e-01,9.598882198333740234e-01,9.622065424919128418e-01,9.658043980598449707e-01,9.674224257469177246e-01,9.697384238243103027e-01,9.698063731193542480e-01,9.706630706787109375e-01,9.701364636421203613e-01,9.698749780654907227e-01,9.688361883163452148e-01,9.685826897621154785e-01,9.668505191802978516e-01,9.655386209487915039e-01,9.613746404647827148e-01,9.597775936126708984e-01,9.576855301856994629e-01,9.541485905647277832e-01,9.490631818771362305e-01,9.470674991607666016e-01,9.449717998504638672e-01,9.425688385963439941e-01,9.367790222167968750e-01,9.376237988471984863e-01,9.398621320724487305e-01,9.384379982948303223e-01,9.356415271759033203e-01,9.380277991294860840e-01,9.422561526298522949e-01,9.438361525535583496e-01,9.443310499191284180e-01,9.498164653778076172e-01,9.563955068588256836e-01,9.622775316238403320e-01,9.651694297790527344e-01,9.721356630325317383e-01,9.815382957458496094e-01,9.887343645095825195e-01,9.946327209472656250e-01,1.001379847526550293e+00,1.009489178657531738e+00,1.014349222183227539e+00,1.018478631973266602e+00,1.022639274597167969e+00,1.029328703880310059e+00,1.030503153800964355e+00,1.033469915390014648e+00,1.034364700317382812e+00,1.038455367088317871e+00,1.038355231285095215e+00,1.039441227912902832e+00,1.038857936859130859e+00,1.040466427803039551e+00,1.039188742637634277e+00,1.038926720619201660e+00,1.037403345108032227e+00,1.036251664161682129e+00,1.034565567970275879e+00,1.033650755882263184e+00,1.032979249954223633e+00,1.032752275466918945e+00,1.032362580299377441e+00
9.676935076713562012e-01,9.669771790504455566e-01,9.664899706840515137e-01,9.659926891326904297e-01,9.643740057945251465e-01,9.633772373199462891e-01,9.627310633659362793e-01,9.618201851844787598e-01,9.600358605384826660e-01,9.589841365814208984e-01,9.581902623176574707e-01,9.573259353637695312e-01,9.553328752517700195e-01,9.539116024971008301e-01,9.529705643653869629e-01,9.521589279174804688e-01,9.502175450325012207e-01,9.488397836685180664e-01,9.482733607292175293e-01,9.474823474884033203e-01,9.458841681480407715e-01,9.450286030769348145e-01,9.445644617080688477e-01,9.440218210220336914e-01,9.428117275238037109e-01,9.422125816345214844e-01,9.421774148941040039e-01,9.419132471084594727e-01,9.411649703979492188e-01,9.411249160766601562e-01,9.409078955650329590e-01,9.412056207656860352e-01,9.405716657638549805e-01,9.402743577957153320e-01,9.401707649230957031e-01,9.402118921279907227e-01,9.403120279312133789e-01,9.402419924736022949e-01,9.404327273368835449e-01,9.411138296127319336e-01,9.416168332099914551e-01,9.420822858810424805e-01,9.429678320884704590e-01,9.433553218841552734e-01,9.457798004150390625e-01,9.477585554122924805e-01,9.496425986289978027e-01,9.518363475799560547e-01,9.546844363212585449e-01,9.568849205970764160e-01,9.595006108283996582e-01,9.609488844871520996e-01,9.652830362319946289e-01,9.684597849845886230e-01,9.713482260704040527e-01,9.735079407691955566e-01,9.756134152412414551e-01,9.773085713386535645e-01,9.797889590263366699e-01,9.812755584716796875e-01,9.828328490257263184e-01,9.844265580177307129e-01,9.845679998397827148e-01,9.837849140167236328e-01,9.833662509918212891e-01,9.840003848075866699e-01,9.835207462310791016e-01,9.825448989868164062e-01,9.807925820350646973e-01,9.803681373596191406e-01,9.787036776542663574e-01,9.758467674255371094e-01,9.743465185165405273e-01,9.728606939315795898e-01,9.700577259063720703e-01,9.667637348175048828e-01,9.645578265190124512e-01,9.617154002189636230e-01,9.592314958572387695e-01,9.550994634628295898e-01,9.569380283355712891e-01,9.571905136108398438e-01,9.548812508583068848e-01,9.521051645278930664e-01,9.537337422370910645e-01,9.561936855316162109e-01,9.565119743347167969e-01,9.568874239921569824e-01,9.603261947631835938e-01,9.650892615318298340e-01,9.673492312431335449e-01,9.704633951187133789e-01,9.750502705574035645e-01,9.833538532257080078e-01,9.884844422340393066e-01,9.938253164291381836e-01,9.988736510276794434e-01,1.005737066268920898e+00,1.010823249816894531e+00,1.016053795814514160e+00,1.020028710365295410e+00,1.025470376014709473e+00,1.026564121246337891e+00,1.029671788215637207e+00,1.031629085540771484e+00,1.034899950027465820e+00,1.035381197929382324e+00,1.036598324775695801e+00,1.036276936531066895e+00,1.036843776702880859e+00,1.035059928894042969e+00,1.035374522209167480e+00,1.034205317497253418e+00,1.032999634742736816e+00,1.031086921691894531e+00,1.030350565910339355e+00,1.030233621597290039e+00,1.030239939689636230e+00,1.029852986335754395e+00
9.783963561058044434e-01,9.774513840675354004e-01,9.769741892814636230e-01,9.763679504394531250e-01,9.751255512237548828e-01,9.740279316902160645e-01,9.732605814933776855e-01,9.727417826652526855e-01,9.711345434188842773e-01,9.700813889503479004e-01,9.694535732269287109e-01,9.685784578323364258e-01,9.666684865951538086e-01,9.650825858116149902e-01,9.641883373260498047e-01,9.633639454841613770e-01,9.615241885185241699e-01,9.603312611579895020e-01,9.598383307456970215e-01,9.591721892356872559e-01,9.577595591545104980e-01,9.568564295768737793e-01,9.561669826507568359e-01,9.557266831398010254e-01,9.546549916267395020e-01,9.540642499923706055e-01,9.537115097045898438e-01,9.534338116645812988e-01,9.528602361679077148e-01,9.526301622390747070e-01,9.524924755096435547e-01,9.525912404060363770e-01,9.521320462226867676e-01,9.517802000045776367e-01,9.516903758049011230e-01,9.517354965209960938e-01,9.517436027526855469e-01,9.519692063331604004e-01,9.520145058631896973e-01,9.521834850311279297e-01,9.527896642684936523e-01,9.532965421676635742e-01,9.538180828094482422e-01,9.542546272277832031e-01,9.560718536376953125e-01,9.578507542610168457e-01,9.595280885696411133e-01,9.604517817497253418e-01,9.633934497833251953e-01,9.648274183273315430e-01,9.668982625007629395e-01,9.679453372955322266e-01,9.721706509590148926e-01,9.749484062194824219e-01,9.777322411537170410e-01,9.780361056327819824e-01,9.819774031639099121e-01,9.831265807151794434e-01,9.848251938819885254e-01,9.849020838737487793e-01,9.883506298065185547e-01,9.887356162071228027e-01,9.894258975982666016e-01,9.869986176490783691e-01,9.894683957099914551e-01,9.889733195304870605e-01,9.871583580970764160e-01,9.847795367240905762e-01,9.839678406715393066e-01,9.825003743171691895e-01,9.811129570007324219e-01,9.783982038497924805e-01,9.767839908599853516e-01,9.749675393104553223e-01,9.722413420677185059e-01,9.684091806411743164e-01,9.646461009979248047e-01,9.621150493621826172e-01,9.600952863693237305e-01,9.585092067718505859e-01,9.576768875122070312e-01,9.584047198295593262e-01,9.561733007431030273e-01,9.532502293586730957e-01,9.541406631469726562e-01,9.565663933753967285e-01,9.576214551925659180e-01,9.571660161018371582e-01,9.595254659652709961e-01,9.631621837615966797e-01,9.658064842224121094e-01,9.670547246932983398e-01,9.730291366577148438e-01,9.799731969833374023e-01,9.849451184272766113e-01,9.896971583366394043e-01,9.959051609039306641e-01,1.002488851547241211e+00,1.007720351219177246e+00,1.013061285018920898e+00,1.017393708229064941e+00,1.021614193916320801e+00,1.023587465286254883e+00,1.026882410049438477e+00,1.028620839118957520e+00,1.031929016113281250e+00,1.032955646514892578e+00,1.033596396446228027e+00,1.032975673675537109e+00,1.033347129821777344e+00,1.032012939453125000e+00,1.031778931617736816e+00,1.030470609664916992e+00,1.030178308486938477e+00,1.028603911399841309e+00,1.027970194816589355e+00,1.027505517005920410e+00,1.027817487716674805e+00,1.027142167091369629e+00
9.915818572044372559e-01,9.906084537506103516e-01,9.900688529014587402e-01,9.896898269653320312e-01,9.887720942497253418e-01,9.874364137649536133e-01,9.866116046905517578e-01,9.861414432525634766e-01,9.847217202186584473e-01,9.833938479423522949e-01,9.826338887214660645e-01,9.820213317871093750e-01,9.803611040115356445e-01,9.788134098052978516e-01,9.780073761940002441e-01,9.773640632629394531e-01,9.758298397064208984e-01,9.744669198989868164e-01,9.739292263984680176e-01,9.733869433403015137e-01,9.723016023635864258e-01,9.712382555007934570e-01,9.706926941871643066e-01,9.703404903411865234e-01,9.693831801414489746e-01,9.686972498893737793e-01,9.686487913131713867e-01,9.682354331016540527e-01,9.677212238311767578e-01,9.672871232032775879e-01,9.670678973197937012e-01,9.669867157936096191e-01,9.664511084556579590e-01,9.659245014190673828e-01,9.663801789283752441e-01,9.660494327545166016e-01,9.662285447120666504e-01,9.662963747978210449e-01,9.666613340377807617e-01,9.664412736892700195e-01,9.670579433441162109e-01,9.674128293991088867e-01,9.682585597038269043e-01,9.682158827781677246e-01,9.696039557456970215e-01,9.713365435600280762e-01,9.723958373069763184e-01,9.730615615844726562e-01,9.747485518455505371e-01,9.763567447662353516e-01,9.775750637054443359e-01,9.784061908721923828e-01,9.812348484992980957e-01,9.839605689048767090e-01,9.845601320266723633e-01,9.850133061408996582e-01,9.870569109916687012e-01,9.885171651840209961e-01,9.881734251976013184e-01,9.887387752532958984e-01,9.907816052436828613e-01,9.917832612991333008e-01,9.902897477149963379e-01,9.885518550872802734e-01,9.900913238525390625e-01,9.907858371734619141e-01,9.875724315643310547e-01,9.860028028488159180e-01,9.853112697601318359e-01,9.850642085075378418e-01,9.834675192832946777e-01,9.812225699424743652e-01,9.794809818267822266e-01,9.785762429237365723e-01,9.763273000717163086e-01,9.735544919967651367e-01,9.704598188400268555e-01,9.687531590461730957e-01,9.674997329711914062e-01,9.669165015220642090e-01,9.652740359306335449e-01,9.658604264259338379e-01,9.623599648475646973e-01,9.606391787528991699e-01,9.602208137512207031e-01,9.618542790412902832e-01,9.613530635833740234e-01,9.611991643905639648e-01,9.623279571533203125e-01,9.656469821929931641e-01,9.669612050056457520e-01,9.684200882911682129e-01,9.738883972167968750e-01,9.803652763366699219e-01,9.851750731468200684e-01,9.896171092987060547e-01,9.965253472328186035e-01,1.003019213676452637e+00,1.007649898529052734e+00,1.012057423591613770e+00,1.016367435455322266e+00,1.020714402198791504e+00,1.022588133811950684e+00,1.025931954383850098e+00,1.027840971946716309e+00,1.030384063720703125e+00,1.030611038208007812e+00,1.031420826911926270e+00,1.030059218406677246e+00,1.030383110046386719e+00,1.029319167137145996e+00,1.028795003890991211e+00,1.027524828910827637e+00,1.026915788650512695e+00,1.025261163711547852e+00,1.024901270866394043e+00,1.024746417999267578e+00,1.025019526481628418e+00,1.024224042892456055e+00
9.980857372283935547e-01,9.969186782836914062e-01,9.965554475784301758e-01,9.962336421012878418e-01,9.950488209724426270e-01,9.936943650245666504e-01,9.932211637496948242e-01,9.926598668098449707e-01,9.913570880889892578e-01,9.902091026306152344e-01,9.896141886711120605e-01,9.890067577362060547e-01,9.876104593276977539e-01,9.860365986824035645e-01,9.853202700614929199e-01,9.845848679542541504e-01,9.832239151000976562e-01,9.819090366363525391e-01,9.815710186958312988e-01,9.810154438018798828e-01,9.801656007766723633e-01,9.788597822189331055e-01,9.785640239715576172e-01,9.782669544219970703e-01,9.772766828536987305e-01,9.764700531959533691e-01,9.765186905860900879e-01,9.762414097785949707e-01,9.758749008178710938e-01,9.752784371376037598e-01,9.754592180252075195e-01,9.750766754150390625e-01,9.748578667640686035e-01,9.742445349693298340e-01,9.746674299240112305e-01,9.746467471122741699e-01,9.750055074691772461e-01,9.748962521553039551e-01,9.753477573394775391e-01,9.752039909362792969e-01,9.759846925735473633e-01,9.761608242988586426e-01,9.770520925521850586e-01,9.772847890853881836e-01,9.787195324897766113e-01,9.801090359687805176e-01,9.813547730445861816e-01,9.818791747093200684e-01,9.837067127227783203e-01,9.848849773406982422e-01,9.861603379249572754e-01,9.870791435241699219e-01,9.892272949218750000e-01,9.917839765548706055e-01,9.925556778907775879e-01,9.923666119575500488e-01,9.937587976455688477e-01,9.949818253517150879e-01,9.952102303504943848e-01,9.952184557914733887e-01,9.959359169006347656e-01,9.972814321517944336e-01,9.958647489547729492e-01,9.936953186988830566e-01,9.944952130317687988e-01,9.950714111328125000e-01,9.930390715599060059e-01,9.895384311676025391e-01,9.882771372795104980e-01,9.887744188308715820e-01,9.859743714332580566e-01,9.832450151443481445e-01,9.809539318084716797e-01,9.800871610641479492e-01,9.776362776756286621e-01,9.742808938026428223e-01,9.703228473663330078e-01,9.690928459167480469e-01,9.672957062721252441e-01,9.668098688125610352e-01,9.642061591148376465e-01,9.638903141021728516e-01,9.613513946533203125e-01,9.596968889236450195e-01,9.580507278442382812e-01,9.594123959541320801e-01,9.595020413398742676e-01,9.599325656890869141e-01,9.611701965332031250e-01,9.641453027725219727e-01,9.657296538352966309e-01,9.672939181327819824e-01,9.725223183631896973e-01,9.785575270652770996e-01,9.834782481193542480e-01,9.875933527946472168e-01,9.941748976707458496e-01,1.000762462615966797e+00,1.006003260612487793e+00,1.009696006774902344e+00,1.014158248901367188e+00,1.018073678016662598e+00,1.020680308341979980e+00,1.023243188858032227e+00,1.025057196617126465e+00,1.027493000030517578e+00,1.028614997863769531e+00,1.029385566711425781e+00,1.028230667114257812e+00,1.028020501136779785e+00,1.026990413665771484e+00,1.026605248451232910e+00,1.024777770042419434e+00,1.024388074874877930e+00,1.022769808769226074e+00,1.022522211074829102e+00,1.022156238555908203e+00,1.022672653198242188e+00,1.021795392036437988e+00
1.003461599349975586e+00,1.002663969993591309e+00,1.002389430999755859e+00,1.001802563667297363e+00,1.000670433044433594e+00,9.996414184570312500e-01,9.990038275718688965e-01,9.983434677124023438e-01,9.973420500755310059e-01,9.963546991348266602e-01,9.956508278846740723e-01,9.947749376296997070e-01,9.934972524642944336e-01,9.922424554824829102e-01,9.915385842323303223e-01,9.907614588737487793e-01,9.893906712532043457e-01,9.883847236633300781e-01,9.879721999168395996e-01,9.872195720672607422e-01,9.863293766975402832e-01,9.852780699729919434e-01,9.848409295082092285e-01,9.844389557838439941e-01,9.835878610610961914e-01,9.830724000930786133e-01,9.829997420310974121e-01,9.824842810630798340e-01,9.817360639572143555e-01,9.812939763069152832e-01,9.809886813163757324e-01,9.805615544319152832e-01,9.801029562950134277e-01,9.796535968780517578e-01,9.799906015396118164e-01,9.798122644424438477e-01,9.798523187637329102e-01,9.799153804779052734e-01,9.802567362785339355e-01,9.803192019462585449e-01,9.805442690849304199e-01,9.806662201881408691e-01,9.814683198928833008e-01,9.821625351905822754e-01,9.833620190620422363e-01,9.843378663063049316e-01,9.851845502853393555e-01,9.861143827438354492e-01,9.869261980056762695e-01,9.874743223190307617e-01,9.884838461875915527e-01,9.899443387985229492e-01,9.917111396789550781e-01,9.938266873359680176e-01,9.943773150444030762e-01,9.945859909057617188e-01,9.950268864631652832e-01,9.961330890655517578e-01,9.962109327316284180e-01,9.966775178909301758e-01,9.970936775207519531e-01,9.980458021163940430e-01,9.969654679298400879e-01,9.958946704864501953e-01,9.957329630851745605e-01,9.954079985618591309e-01,9.934846758842468262e-01,9.913700819015502930e-01,9.908753633499145508e-01,9.900227189064025879e-01,9.879145622253417969e-01,9.857035279273986816e-01,9.839015603065490723e-01,9.818537831306457520e-01,9.800033569335937500e-01,9.768114686012268066e-01,9.741293787956237793e-01,9.720020294189453125e-01,9.703374505043029785e-01,9.702530503273010254e-01,9.679434299468994141e-01,9.674704074859619141e-01,9.652157425880432129e-01,9.636282920837402344e-01,9.624421000480651855e-01,9.629071354866027832e-01,9.625543355941772461e-01,9.624718427658081055e-01,9.631452560424804688e-01,9.656924009323120117e-01,9.667332172393798828e-01,9.681391119956970215e-01,9.723332524299621582e-01,9.782229661941528320e-01,9.825651645660400391e-01,9.870525002479553223e-01,9.923223853111267090e-01,9.984340071678161621e-01,1.003844857215881348e+00,1.007572650909423828e+00,1.011695623397827148e+00,1.014929175376892090e+00,1.017785072326660156e+00,1.021204352378845215e+00,1.022823452949523926e+00,1.024931430816650391e+00,1.025453686714172363e+00,1.025999307632446289e+00,1.024654984474182129e+00,1.024405598640441895e+00,1.023647189140319824e+00,1.022724270820617676e+00,1.021231412887573242e+00,1.020592212677001953e+00,1.019451737403869629e+00,1.019059419631958008e+00,1.019305944442749023e+00,1.019583463668823242e+00,1.019100189208984375e+00
1.004768133163452148e+00,1.004133105278015137e+00,1.003582000732421875e+00,1.002803802490234375e+00,1.001916050910949707e+00,1.000924468040466309e+00,1.000372171401977539e+00,9.997027516365051270e-01,9.989218711853027344e-01,9.981486797332763672e-01,9.975060820579528809e-01,9.966858029365539551e-01,9.957522153854370117e-01,9.946509003639221191e-01,9.938223361968994141e-01,9.929975271224975586e-01,9.919583797454833984e-01,9.912707805633544922e-01,9.907720088958740234e-01,9.900445938110351562e-01,9.893239140510559082e-01,9.884684681892395020e-01,9.880256056785583496e-01,9.872974157333374023e-01,9.869080781936645508e-01,9.865243434906005859e-01,9.860959649085998535e-01,9.856169819831848145e-01,9.853857755661010742e-01,9.848504066467285156e-01,9.843721985816955566e-01,9.839782118797302246e-01,9.837505221366882324e-01,9.835436940193176270e-01,9.836294054985046387e-01,9.837369322776794434e-01,9.839915633201599121e-01,9.840480089187622070e-01,9.842378497123718262e-01,9.844595193862915039e-01,9.847195148468017578e-01,9.848228693008422852e-01,9.856550097465515137e-01,9.865639209747314453e-01,9.875096678733825684e-01,9.884498119354248047e-01,9.892075657844543457e-01,9.899833202362060547e-01,9.908443093299865723e-01,9.913980960845947266e-01,9.928263425827026367e-01,9.939519762992858887e-01,9.955621957778930664e-01,9.973257780075073242e-01,9.976931214332580566e-01,9.971653819084167480e-01,9.977970123291015625e-01,9.981131553649902344e-01,9.985836744308471680e-01,9.985138773918151855e-01,9.982383251190185547e-01,9.989069700241088867e-01,9.980599284172058105e-01,9.972074627876281738e-01,9.958829879760742188e-01,9.950802326202392578e-01,9.944275617599487305e-01,9.933316111564636230e-01,9.913995265960693359e-01,9.912885427474975586e-01,9.892764091491699219e-01,9.876430034637451172e-01,9.849830269813537598e-01,9.840717911720275879e-01,9.814394116401672363e-01,9.791302084922790527e-01,9.757276773452758789e-01,9.741901159286499023e-01,9.718871712684631348e-01,9.713625311851501465e-01,9.687634706497192383e-01,9.675241708755493164e-01,9.658164978027343750e-01,9.637430906295776367e-01,9.632956981658935547e-01,9.631937146186828613e-01,9.622004628181457520e-01,9.621368050575256348e-01,9.635909795761108398e-01,9.654490351676940918e-01,9.666399955749511719e-01,9.678267240524291992e-01,9.732161164283752441e-01,9.780009984970092773e-01,9.819954633712768555e-01,9.857949018478393555e-01,9.918518662452697754e-01,9.968655705451965332e-01,1.001632452011108398e+00,1.005298256874084473e+00,1.009523391723632812e+00,1.012830615043640137e+00,1.015747189521789551e+00,1.018707275390625000e+00,1.020211577415466309e+00,1.022312164306640625e+00,1.022315382957458496e+00,1.022458791732788086e+00,1.021508216857910156e+00,1.021336078643798828e+00,1.020205736160278320e+00,1.019432544708251953e+00,1.018102169036865234e+00,1.017292499542236328e+00,1.016262769699096680e+00,1.016141295433044434e+00,1.016252636909484863e+00,1.016657114028930664e+00,1.016098976135253906e+00
1.004305958747863770e+00,1.003548622131347656e+00,1.003341197967529297e+00,1.002555727958679199e+00,1.001952290534973145e+00,1.000838160514831543e+00,1.000573873519897461e+00,9.999601840972900391e-01,9.994301199913024902e-01,9.986076951026916504e-01,9.980770349502563477e-01,9.971989393234252930e-01,9.965732097625732422e-01,9.953247308731079102e-01,9.948872923851013184e-01,9.940485954284667969e-01,9.933917522430419922e-01,9.926069974899291992e-01,9.922561645507812500e-01,9.914578795433044434e-01,9.910201430320739746e-01,9.899920821189880371e-01,9.895362854003906250e-01,9.888548254966735840e-01,9.887393712997436523e-01,9.882301092147827148e-01,9.879057407379150391e-01,9.872955679893493652e-01,9.871113896369934082e-01,9.863427281379699707e-01,9.860416054725646973e-01,9.856605529785156250e-01,9.855535626411437988e-01,9.852330088615417480e-01,9.851921796798706055e-01,9.853412508964538574e-01,9.856750369071960449e-01,9.856806993484497070e-01,9.857471585273742676e-01,9.860878586769104004e-01,9.864029884338378906e-01,9.865511655807495117e-01,9.871681928634643555e-01,9.882937669754028320e-01,9.892179965972900391e-01,9.902059435844421387e-01,9.907699227333068848e-01,9.917816519737243652e-01,9.926370382308959961e-01,9.934812784194946289e-01,9.943082928657531738e-01,9.959816932678222656e-01,9.978471994400024414e-01,9.993895292282104492e-01,9.991353154182434082e-01,9.989969134330749512e-01,1.000354647636413574e+00,1.000486135482788086e+00,1.000826001167297363e+00,1.001286506652832031e+00,1.001489758491516113e+00,1.001551508903503418e+00,1.001451253890991211e+00,1.000642299652099609e+00,9.996311664581298828e-01,9.991433620452880859e-01,9.992156028747558594e-01,9.975932240486145020e-01,9.952970147132873535e-01,9.954906105995178223e-01,9.944143295288085938e-01,9.920903444290161133e-01,9.887633323669433594e-01,9.880194067955017090e-01,9.857246875762939453e-01,9.822986125946044922e-01,9.787133336067199707e-01,9.775497913360595703e-01,9.758272171020507812e-01,9.749499559402465820e-01,9.724932312965393066e-01,9.712569117546081543e-01,9.692552089691162109e-01,9.669934511184692383e-01,9.665094614028930664e-01,9.653309583663940430e-01,9.637281894683837891e-01,9.636803269386291504e-01,9.652046561241149902e-01,9.667452573776245117e-01,9.676474332809448242e-01,9.687954783439636230e-01,9.736958742141723633e-01,9.782655835151672363e-01,9.820625185966491699e-01,9.851872324943542480e-01,9.907219409942626953e-01,9.958727955818176270e-01,1.000866293907165527e+00,1.004249930381774902e+00,1.008023738861083984e+00,1.011574983596801758e+00,1.013804554939270020e+00,1.016533136367797852e+00,1.017477989196777344e+00,1.019681811332702637e+00,1.019544959068298340e+00,1.019654393196105957e+00,1.018831014633178711e+00,1.018200397491455078e+00,1.016925692558288574e+00,1.016340970993041992e+00,1.015081286430358887e+00,1.014287590980529785e+00,1.013443470001220703e+00,1.013624548912048340e+00,1.013736605644226074e+00,1.013863682746887207e+00,1.012919306755065918e+00
1.002603173255920410e+00,1.002075910568237305e+00,1.001708745956420898e+00,1.001175403594970703e+00,1.000426054000854492e+00,9.994988441467285156e-01,9.991316199302673340e-01,9.985854625701904297e-01,9.978887438774108887e-01,9.972739815711975098e-01,9.966039657592773438e-01,9.960728883743286133e-01,9.952396154403686523e-01,9.942328333854675293e-01,9.936519861221313477e-01,9.929554462432861328e-01,9.922492504119873047e-01,9.915271401405334473e-01,9.910500049591064453e-01,9.907330274581909180e-01,9.900492429733276367e-01,9.891917109489440918e-01,9.888389706611633301e-01,9.882577061653137207e-01,9.878701567649841309e-01,9.875171780586242676e-01,9.873298406600952148e-01,9.868214726448059082e-01,9.863867759704589844e-01,9.860916733741760254e-01,9.859334826469421387e-01,9.854379892349243164e-01,9.852708578109741211e-01,9.849772453308105469e-01,9.850180745124816895e-01,9.851276278495788574e-01,9.853568673133850098e-01,9.855358600616455078e-01,9.857617616653442383e-01,9.858206510543823242e-01,9.862902760505676270e-01,9.864326119422912598e-01,9.869252443313598633e-01,9.877017140388488770e-01,9.889730811119079590e-01,9.900436401367187500e-01,9.904999136924743652e-01,9.908846020698547363e-01,9.922377467155456543e-01,9.929313659667968750e-01,9.938831329345703125e-01,9.950816631317138672e-01,9.969936609268188477e-01,9.985079169273376465e-01,9.985960125923156738e-01,9.982966780662536621e-01,9.994899034500122070e-01,9.999279975891113281e-01,1.000084042549133301e+00,1.000484347343444824e+00,1.000073671340942383e+00,1.000609159469604492e+00,1.000164628028869629e+00,9.996743202209472656e-01,9.978310465812683105e-01,9.978830218315124512e-01,9.969834685325622559e-01,9.965273737907409668e-01,9.942759871482849121e-01,9.940272569656372070e-01,9.924514889717102051e-01,9.914277791976928711e-01,9.885946512222290039e-01,9.875907897949218750e-01,9.856047034263610840e-01,9.832404255867004395e-01,9.803087711334228516e-01,9.791121482849121094e-01,9.773895144462585449e-01,9.766776561737060547e-01,9.738308191299438477e-01,9.729368686676025391e-01,9.718956351280212402e-01,9.697373509407043457e-01,9.685228466987609863e-01,9.681646227836608887e-01,9.670205116271972656e-01,9.665301442146301270e-01,9.670235514640808105e-01,9.690392017364501953e-01,9.701264500617980957e-01,9.712258577346801758e-01,9.754172563552856445e-01,9.806652665138244629e-01,9.843268990516662598e-01,9.873412251472473145e-01,9.927371144294738770e-01,9.975951313972473145e-01,1.001964211463928223e+00,1.005422234535217285e+00,1.008609414100646973e+00,1.011627912521362305e+00,1.014034986495971680e+00,1.016613602638244629e+00,1.017006993293762207e+00,1.018467187881469727e+00,1.018348693847656250e+00,1.018365621566772461e+00,1.017465472221374512e+00,1.017119765281677246e+00,1.015683770179748535e+00,1.014699935913085938e+00,1.013372898101806641e+00,1.013082861900329590e+00,1.011806845664978027e+00,1.011567354202270508e+00,1.011585474014282227e+00,1.011827468872070312e+00,1.011023998260498047e+00
1.001755833625793457e+00,1.001389622688293457e+00,1.000946164131164551e+00,1.000589728355407715e+00,9.997995495796203613e-01,9.990006089210510254e-01,9.984519481658935547e-01,9.982501864433288574e-01,9.976602792739868164e-01,9.971117973327636719e-01,9.965253472328186035e-01,9.960941672325134277e-01,9.952180981636047363e-01,9.943259358406066895e-01,9.935420751571655273e-01,9.932164549827575684e-01,9.926145076751708984e-01,9.920880198478698730e-01,9.915981292724609375e-01,9.913767576217651367e-01,9.907109141349792480e-01,9.899774789810180664e-01,9.895976185798645020e-01,9.893025755882263184e-01,9.887709021568298340e-01,9.884080290794372559e-01,9.882376790046691895e-01,9.880568981170654297e-01,9.875344038009643555e-01,9.871177077293395996e-01,9.869480133056640625e-01,9.865982532501220703e-01,9.862868189811706543e-01,9.861063957214355469e-01,9.863015413284301758e-01,9.865251779556274414e-01,9.867969751358032227e-01,9.869068861007690430e-01,9.871770143508911133e-01,9.871245622634887695e-01,9.876136779785156250e-01,9.881235957145690918e-01,9.888886809349060059e-01,9.893971681594848633e-01,9.907004237174987793e-01,9.920372962951660156e-01,9.924543499946594238e-01,9.924879074096679688e-01,9.937983155250549316e-01,9.946905970573425293e-01,9.959231615066528320e-01,9.971146583557128906e-01,9.986433386802673340e-01,1.000201821327209473e+00,1.000811457633972168e+00,1.000589609146118164e+00,1.001473903656005859e+00,1.001363515853881836e+00,1.001991271972656250e+00,1.002303957939147949e+00,1.002449035644531250e+00,1.002365469932556152e+00,1.002393960952758789e+00,1.002128362655639648e+00,1.001462221145629883e+00,1.000275969505310059e+00,9.992473125457763672e-01,9.990647435188293457e-01,9.976941943168640137e-01,9.969636797904968262e-01,9.955810904502868652e-01,9.947364926338195801e-01,9.927927255630493164e-01,9.909911155700683594e-01,9.888739585876464844e-01,9.862142205238342285e-01,9.842532277107238770e-01,9.826290607452392578e-01,9.806805253028869629e-01,9.795975089073181152e-01,9.764861464500427246e-01,9.754973649978637695e-01,9.739131331443786621e-01,9.715844988822937012e-01,9.699815511703491211e-01,9.695084691047668457e-01,9.689142704010009766e-01,9.681254029273986816e-01,9.687687158584594727e-01,9.703073501586914062e-01,9.712980389595031738e-01,9.722186923027038574e-01,9.761141538619995117e-01,9.807813167572021484e-01,9.841098189353942871e-01,9.868962168693542480e-01,9.916404485702514648e-01,9.966458678245544434e-01,1.000374794006347656e+00,1.003462910652160645e+00,1.006438732147216797e+00,1.009587526321411133e+00,1.011512875556945801e+00,1.013671875000000000e+00,1.013841509819030762e+00,1.015483856201171875e+00,1.015366196632385254e+00,1.015311121940612793e+00,1.014626383781433105e+00,1.013875842094421387e+00,1.012810230255126953e+00,1.011502742767333984e+00,1.010941863059997559e+00,1.010428667068481445e+00,1.009592056274414062e+00,1.008664965629577637e+00,1.008754730224609375e+00,1.009023070335388184e+00,1.008222937583923340e+00
1.001250386238098145e+00,1.000712394714355469e+00,1.000352025032043457e+00,1.000011563301086426e+00,9.991944432258605957e-01,9.982801675796508789e-01,9.978854060173034668e-01,9.975196719169616699e-01,9.968245029449462891e-01,9.962257146835327148e-01,9.957450032234191895e-01,9.953124523162841797e-01,9.941977262496948242e-01,9.934591650962829590e-01,9.930677413940429688e-01,9.926692247390747070e-01,9.918835163116455078e-01,9.911699295043945312e-01,9.908458590507507324e-01,9.905333518981933594e-01,9.896362423896789551e-01,9.889907836914062500e-01,9.885445237159729004e-01,9.882025122642517090e-01,9.877632260322570801e-01,9.872322082519531250e-01,9.870675206184387207e-01,9.869298934936523438e-01,9.863904714584350586e-01,9.858630299568176270e-01,9.857368469238281250e-01,9.853544235229492188e-01,9.851756095886230469e-01,9.849761128425598145e-01,9.849007129669189453e-01,9.850163459777832031e-01,9.853024482727050781e-01,9.854178428649902344e-01,9.855589866638183594e-01,9.853775501251220703e-01,9.862192273139953613e-01,9.867784976959228516e-01,9.869586825370788574e-01,9.875115156173706055e-01,9.888718724250793457e-01,9.901068210601806641e-01,9.903346896171569824e-01,9.903848171234130859e-01,9.917389154434204102e-01,9.927438497543334961e-01,9.932634234428405762e-01,9.942706823348999023e-01,9.956519007682800293e-01,9.970012307167053223e-01,9.973250627517700195e-01,9.973360896110534668e-01,9.982457160949707031e-01,9.983718991279602051e-01,9.984079003334045410e-01,9.991814494132995605e-01,9.990084767341613770e-01,9.988769888877868652e-01,9.986257553100585938e-01,9.987967014312744141e-01,9.977512955665588379e-01,9.967396855354309082e-01,9.959890246391296387e-01,9.957193732261657715e-01,9.944197535514831543e-01,9.933072924613952637e-01,9.924302697181701660e-01,9.921046495437622070e-01,9.897285699844360352e-01,9.883733391761779785e-01,9.868020415306091309e-01,9.846187233924865723e-01,9.830910563468933105e-01,9.819110035896301270e-01,9.801602959632873535e-01,9.794541001319885254e-01,9.762360453605651855e-01,9.752937555313110352e-01,9.738684892654418945e-01,9.718543887138366699e-01,9.708121418952941895e-01,9.703822135925292969e-01,9.696281552314758301e-01,9.693515300750732422e-01,9.699324369430541992e-01,9.709091186523437500e-01,9.717913866043090820e-01,9.728536605834960938e-01,9.765571355819702148e-01,9.805496335029602051e-01,9.835536479949951172e-01,9.861907958984375000e-01,9.911052584648132324e-01,9.955232143402099609e-01,9.983770847320556641e-01,1.001068830490112305e+00,1.004182577133178711e+00,1.006908535957336426e+00,1.008440613746643066e+00,1.010044455528259277e+00,1.010797739028930664e+00,1.011963963508605957e+00,1.011856436729431152e+00,1.011526465415954590e+00,1.010900139808654785e+00,1.010208487510681152e+00,1.009300231933593750e+00,1.008357167243957520e+00,1.007582068443298340e+00,1.007296442985534668e+00,1.006494283676147461e+00,1.005688548088073730e+00,1.005452394485473633e+00,1.005854606628417969e+00,1.005230665206909180e+00
9.978681802749633789e-01,9.972665309906005859e-01,9.967844486236572266e-01,9.966314435005187988e-01,9.959318041801452637e-01,9.951139092445373535e-01,9.949086308479309082e-01,9.946053624153137207e-01,9.938184618949890137e-01,9.931006431579589844e-01,9.930284619331359863e-01,9.928567409515380859e-01,9.919988512992858887e-01,9.910500049591064453e-01,9.908185601234436035e-01,9.904567599296569824e-01,9.897831082344055176e-01,9.889729619026184082e-01,9.886937737464904785e-01,9.884140491485595703e-01,9.877079725265502930e-01,9.870468378067016602e-01,9.868280887603759766e-01,9.867811799049377441e-01,9.864292144775390625e-01,9.858259558677673340e-01,9.856115579605102539e-01,9.855883121490478516e-01,9.851554036140441895e-01,9.846299290657043457e-01,9.844380021095275879e-01,9.841349720954895020e-01,9.840620160102844238e-01,9.836874008178710938e-01,9.835734963417053223e-01,9.838746786117553711e-01,9.841048121452331543e-01,9.842872619628906250e-01,9.843743443489074707e-01,9.841727018356323242e-01,9.850382208824157715e-01,9.856114387512207031e-01,9.857611060142517090e-01,9.862435460090637207e-01,9.872281551361083984e-01,9.886301755905151367e-01,9.889124631881713867e-01,9.886220097541809082e-01,9.898831248283386230e-01,9.910139441490173340e-01,9.915639162063598633e-01,9.923283457756042480e-01,9.933754801750183105e-01,9.954230189323425293e-01,9.958647489547729492e-01,9.953363537788391113e-01,9.958984255790710449e-01,9.968304038047790527e-01,9.969775676727294922e-01,9.970506429672241211e-01,9.968961477279663086e-01,9.975668191909790039e-01,9.970941543579101562e-01,9.966739416122436523e-01,9.957343935966491699e-01,9.951092600822448730e-01,9.944201111793518066e-01,9.935770630836486816e-01,9.925503730773925781e-01,9.916232228279113770e-01,9.908828139305114746e-01,9.905373454093933105e-01,9.890317320823669434e-01,9.874605536460876465e-01,9.865800738334655762e-01,9.846934080123901367e-01,9.835757613182067871e-01,9.812974929809570312e-01,9.794095158576965332e-01,9.790604114532470703e-01,9.766279458999633789e-01,9.746571779251098633e-01,9.734455943107604980e-01,9.722904562950134277e-01,9.717417359352111816e-01,9.707605838775634766e-01,9.697813987731933594e-01,9.697461724281311035e-01,9.704225063323974609e-01,9.712904095649719238e-01,9.714699387550354004e-01,9.727659225463867188e-01,9.761598110198974609e-01,9.800538420677185059e-01,9.825910925865173340e-01,9.851672053337097168e-01,9.896122813224792480e-01,9.938667416572570801e-01,9.962936043739318848e-01,9.990223646163940430e-01,1.001664638519287109e+00,1.004469156265258789e+00,1.005896925926208496e+00,1.007625222206115723e+00,1.008231163024902344e+00,1.009104132652282715e+00,1.008978247642517090e+00,1.008933782577514648e+00,1.008355021476745605e+00,1.007380962371826172e+00,1.006534695625305176e+00,1.005918025970458984e+00,1.005399703979492188e+00,1.004864215850830078e+00,1.004099488258361816e+00,1.003240942955017090e+00,1.003090381622314453e+00,1.003108143806457520e+00,1.002450942993164062e+00
9.971856474876403809e-01,9.965174198150634766e-01,9.961317777633666992e-01,9.958487749099731445e-01,9.952634572982788086e-01,9.945127964019775391e-01,9.941541552543640137e-01,9.939396381378173828e-01,9.934339523315429688e-01,9.926578402519226074e-01,9.924287199974060059e-01,9.924873113632202148e-01,9.916276931762695312e-01,9.907780885696411133e-01,9.904280900955200195e-01,9.901250600814819336e-01,9.895604848861694336e-01,9.889091849327087402e-01,9.882786273956298828e-01,9.879661202430725098e-01,9.874152541160583496e-01,9.865761995315551758e-01,9.862619042396545410e-01,9.860105514526367188e-01,9.857422113418579102e-01,9.852465391159057617e-01,9.848909974098205566e-01,9.848410487174987793e-01,9.845190048217773438e-01,9.840607047080993652e-01,9.838962554931640625e-01,9.834848046302795410e-01,9.834313988685607910e-01,9.832249879837036133e-01,9.830905199050903320e-01,9.831467270851135254e-01,9.833467006683349609e-01,9.835475087165832520e-01,9.835936427116394043e-01,9.835538864135742188e-01,9.841868281364440918e-01,9.846310019493103027e-01,9.850164651870727539e-01,9.855477809906005859e-01,9.861517548561096191e-01,9.874269962310791016e-01,9.880287051200866699e-01,9.881337285041809082e-01,9.887601137161254883e-01,9.901192188262939453e-01,9.909557700157165527e-01,9.919484853744506836e-01,9.925560355186462402e-01,9.944970011711120605e-01,9.948009252548217773e-01,9.949369430541992188e-01,9.953466057777404785e-01,9.965858459472656250e-01,9.968558549880981445e-01,9.972202777862548828e-01,9.969256520271301270e-01,9.977727532386779785e-01,9.973179697990417480e-01,9.969705343246459961e-01,9.960616230964660645e-01,9.957346320152282715e-01,9.949927926063537598e-01,9.940626025199890137e-01,9.934430122375488281e-01,9.925805330276489258e-01,9.913477301597595215e-01,9.904804825782775879e-01,9.892427325248718262e-01,9.877837300300598145e-01,9.865537285804748535e-01,9.849851131439208984e-01,9.834461808204650879e-01,9.811985492706298828e-01,9.799469113349914551e-01,9.791928529739379883e-01,9.763084053993225098e-01,9.746743440628051758e-01,9.727549552917480469e-01,9.722579717636108398e-01,9.712178707122802734e-01,9.705965518951416016e-01,9.695835709571838379e-01,9.696555137634277344e-01,9.701743721961975098e-01,9.710475802421569824e-01,9.713484644889831543e-01,9.723367691040039062e-01,9.755457639694213867e-01,9.793978333473205566e-01,9.819751381874084473e-01,9.839603304862976074e-01,9.882438182830810547e-01,9.921856522560119629e-01,9.946461319923400879e-01,9.968990087509155273e-01,9.995974898338317871e-01,1.001769423484802246e+00,1.003274440765380859e+00,1.004990339279174805e+00,1.005394101142883301e+00,1.006448984146118164e+00,1.006337642669677734e+00,1.006435751914978027e+00,1.005706429481506348e+00,1.005002737045288086e+00,1.004065036773681641e+00,1.003259062767028809e+00,1.002680420875549316e+00,1.002290129661560059e+00,1.001316189765930176e+00,1.000602602958679199e+00,1.000247359275817871e+00,1.000306606292724609e+00,9.993484616279602051e-01
9.941695928573608398e-01,9.935205578804016113e-01,9.933034777641296387e-01,9.930077791213989258e-01,9.927604198455810547e-01,9.919597506523132324e-01,9.918004870414733887e-01,9.915133118629455566e-01,9.913390278816223145e-01,9.905699491500854492e-01,9.904665350914001465e-01,9.902904629707336426e-01,9.899125695228576660e-01,9.892103672027587891e-01,9.890214800834655762e-01,9.884663820266723633e-01,9.883411526679992676e-01,9.877249598503112793e-01,9.873401522636413574e-01,9.869409203529357910e-01,9.866037368774414062e-01,9.858735799789428711e-01,9.854713678359985352e-01,9.850140213966369629e-01,9.848259687423706055e-01,9.845905303955078125e-01,9.844952225685119629e-01,9.841894507408142090e-01,9.839801788330078125e-01,9.837231636047363281e-01,9.835557341575622559e-01,9.830656051635742188e-01,9.830127358436584473e-01,9.828296303749084473e-01,9.827654957771301270e-01,9.827055931091308594e-01,9.828599095344543457e-01,9.830447435379028320e-01,9.834254384040832520e-01,9.833924174308776855e-01,9.839141368865966797e-01,9.840150475502014160e-01,9.845125675201416016e-01,9.852452874183654785e-01,9.858421683311462402e-01,9.868076443672180176e-01,9.876619577407836914e-01,9.880043268203735352e-01,9.887621998786926270e-01,9.893497228622436523e-01,9.900199174880981445e-01,9.911084175109863281e-01,9.918169379234313965e-01,9.931522607803344727e-01,9.937779903411865234e-01,9.942206144332885742e-01,9.945259094238281250e-01,9.950182437896728516e-01,9.952486157417297363e-01,9.957790374755859375e-01,9.953200221061706543e-01,9.957811832427978516e-01,9.954974651336669922e-01,9.954408407211303711e-01,9.945992231369018555e-01,9.939960241317749023e-01,9.929701685905456543e-01,9.921703934669494629e-01,9.909718036651611328e-01,9.903684854507446289e-01,9.886417984962463379e-01,9.879332184791564941e-01,9.859511256217956543e-01,9.855914115905761719e-01,9.837168455123901367e-01,9.823402166366577148e-01,9.801643490791320801e-01,9.788237810134887695e-01,9.778033494949340820e-01,9.765390157699584961e-01,9.744383096694946289e-01,9.728900194168090820e-01,9.719531536102294922e-01,9.709714651107788086e-01,9.702515006065368652e-01,9.696742296218872070e-01,9.689043164253234863e-01,9.686822295188903809e-01,9.692261815071105957e-01,9.700049757957458496e-01,9.704299569129943848e-01,9.712477922439575195e-01,9.742743968963623047e-01,9.777130484580993652e-01,9.798581600189208984e-01,9.820411205291748047e-01,9.859289526939392090e-01,9.893201589584350586e-01,9.913517236709594727e-01,9.938505887985229492e-01,9.962515234947204590e-01,9.983608126640319824e-01,9.996175765991210938e-01,1.001418709754943848e+00,1.001995801925659180e+00,1.003153204917907715e+00,1.003296375274658203e+00,1.002973914146423340e+00,1.002684831619262695e+00,1.002017974853515625e+00,1.001336216926574707e+00,1.000302791595458984e+00,9.999934434890747070e-01,9.995974898338317871e-01,9.986523985862731934e-01,9.979107975959777832e-01,9.974121451377868652e-01,9.972127079963684082e-01,9.964788556098937988e-01
9.912127852439880371e-01,9.908039569854736328e-01,9.906721711158752441e-01,9.905904531478881836e-01,9.903020262718200684e-01,9.898191094398498535e-01,9.896302819252014160e-01,9.894198179244995117e-01,9.890990257263183594e-01,9.886326193809509277e-01,9.885439276695251465e-01,9.883991479873657227e-01,9.879853129386901855e-01,9.875555634498596191e-01,9.873583912849426270e-01,9.869931936264038086e-01,9.867667555809020996e-01,9.863125681877136230e-01,9.860410094261169434e-01,9.857800602912902832e-01,9.852254986763000488e-01,9.848502874374389648e-01,9.847223162651062012e-01,9.843368530273437500e-01,9.841222763061523438e-01,9.837616086006164551e-01,9.833363294601440430e-01,9.832199215888977051e-01,9.831690788269042969e-01,9.829328060150146484e-01,9.825923442840576172e-01,9.823076725006103516e-01,9.822307229042053223e-01,9.820638895034790039e-01,9.820645451545715332e-01,9.820835590362548828e-01,9.822344183921813965e-01,9.824162721633911133e-01,9.827058315277099609e-01,9.827698469161987305e-01,9.831457138061523438e-01,9.832126498222351074e-01,9.836793541908264160e-01,9.842942357063293457e-01,9.850639700889587402e-01,9.858260750770568848e-01,9.865614771842956543e-01,9.872851967811584473e-01,9.881965517997741699e-01,9.884711503982543945e-01,9.891772866249084473e-01,9.902818202972412109e-01,9.912241697311401367e-01,9.922524094581604004e-01,9.928742647171020508e-01,9.936261177062988281e-01,9.940417408943176270e-01,9.942627549171447754e-01,9.944593906402587891e-01,9.949388504028320312e-01,9.947915077209472656e-01,9.950490593910217285e-01,9.949760437011718750e-01,9.949676394462585449e-01,9.941380023956298828e-01,9.936009049415588379e-01,9.928061366081237793e-01,9.918489456176757812e-01,9.905228018760681152e-01,9.900513291358947754e-01,9.887257218360900879e-01,9.876024127006530762e-01,9.857258796691894531e-01,9.846978187561035156e-01,9.834889769554138184e-01,9.821065664291381836e-01,9.799980521202087402e-01,9.786028265953063965e-01,9.772791862487792969e-01,9.762864112854003906e-01,9.745484590530395508e-01,9.731516242027282715e-01,9.718404412269592285e-01,9.711797833442687988e-01,9.704872965812683105e-01,9.698712825775146484e-01,9.690106511116027832e-01,9.686898589134216309e-01,9.690250754356384277e-01,9.698431491851806641e-01,9.701182842254638672e-01,9.707775115966796875e-01,9.734429717063903809e-01,9.766637682914733887e-01,9.788659214973449707e-01,9.807042479515075684e-01,9.841830134391784668e-01,9.872233867645263672e-01,9.894419908523559570e-01,9.914394617080688477e-01,9.939548373222351074e-01,9.957777261734008789e-01,9.971671700477600098e-01,9.984012246131896973e-01,9.994071722030639648e-01,1.000294685363769531e+00,1.000422477722167969e+00,1.000323176383972168e+00,9.998710155487060547e-01,9.996919631958007812e-01,9.989789724349975586e-01,9.982582926750183105e-01,9.976691603660583496e-01,9.970519542694091797e-01,9.962161183357238770e-01,9.956596493721008301e-01,9.950718283653259277e-01,9.946810603141784668e-01,9.940257072448730469e-01
9.871511459350585938e-01,9.867580533027648926e-01,9.867009520530700684e-01,9.865433573722839355e-01,9.862229228019714355e-01,9.858588576316833496e-01,9.857484698295593262e-01,9.855560064315795898e-01,9.851957559585571289e-01,9.846432209014892578e-01,9.845917820930480957e-01,9.844551086425781250e-01,9.840976595878601074e-01,9.837030172348022461e-01,9.834043383598327637e-01,9.832330346107482910e-01,9.829351902008056641e-01,9.824681878089904785e-01,9.821698069572448730e-01,9.820535182952880859e-01,9.816367030143737793e-01,9.812503457069396973e-01,9.809622168540954590e-01,9.806557893753051758e-01,9.804958701133728027e-01,9.801511764526367188e-01,9.798356294631958008e-01,9.796328544616699219e-01,9.794323444366455078e-01,9.791410565376281738e-01,9.788343906402587891e-01,9.786246418952941895e-01,9.787250161170959473e-01,9.785435795783996582e-01,9.785531759262084961e-01,9.784886837005615234e-01,9.786376357078552246e-01,9.789416790008544922e-01,9.791964888572692871e-01,9.791906476020812988e-01,9.793675541877746582e-01,9.797960519790649414e-01,9.803547263145446777e-01,9.807252287864685059e-01,9.814970493316650391e-01,9.824779629707336426e-01,9.833260774612426758e-01,9.838091135025024414e-01,9.843851327896118164e-01,9.850908517837524414e-01,9.859036803245544434e-01,9.867897629737854004e-01,9.876614809036254883e-01,9.887591600418090820e-01,9.895081520080566406e-01,9.902044534683227539e-01,9.903427362442016602e-01,9.910160303115844727e-01,9.914045333862304688e-01,9.917626380920410156e-01,9.915471673011779785e-01,9.919444322586059570e-01,9.921841025352478027e-01,9.920713305473327637e-01,9.910743832588195801e-01,9.905208349227905273e-01,9.899995923042297363e-01,9.893034696578979492e-01,9.878754019737243652e-01,9.867298603057861328e-01,9.854394793510437012e-01,9.848121404647827148e-01,9.832450151443481445e-01,9.817314743995666504e-01,9.805296659469604492e-01,9.797802567481994629e-01,9.783508181571960449e-01,9.765489101409912109e-01,9.752255082130432129e-01,9.744728207588195801e-01,9.731730818748474121e-01,9.717046618461608887e-01,9.706812500953674316e-01,9.701912403106689453e-01,9.696914553642272949e-01,9.687932133674621582e-01,9.677830338478088379e-01,9.676666259765625000e-01,9.680088758468627930e-01,9.685555100440979004e-01,9.686661362648010254e-01,9.694327116012573242e-01,9.720417857170104980e-01,9.750081896781921387e-01,9.770251512527465820e-01,9.786045551300048828e-01,9.817793965339660645e-01,9.846429824829101562e-01,9.868803024291992188e-01,9.888052940368652344e-01,9.906495213508605957e-01,9.926065206527709961e-01,9.940639138221740723e-01,9.956048727035522461e-01,9.964865446090698242e-01,9.972177743911743164e-01,9.975154399871826172e-01,9.974465370178222656e-01,9.972124695777893066e-01,9.968569278717041016e-01,9.963209629058837891e-01,9.954968690872192383e-01,9.950038790702819824e-01,9.944124817848205566e-01,9.937849044799804688e-01,9.929544329643249512e-01,9.924390316009521484e-01,9.920708537101745605e-01,9.914953708648681641e-01
9.840762019157409668e-01,9.837319850921630859e-01,9.836981296539306641e-01,9.836170673370361328e-01,9.833188056945800781e-01,9.828227162361145020e-01,9.827681183815002441e-01,9.826336503028869629e-01,9.823545217514038086e-01,9.818217158317565918e-01,9.818502068519592285e-01,9.816743731498718262e-01,9.815389513969421387e-01,9.810509681701660156e-01,9.809361696243286133e-01,9.807602167129516602e-01,9.804427027702331543e-01,9.799166917800903320e-01,9.799168109893798828e-01,9.795729517936706543e-01,9.794925451278686523e-01,9.790506958961486816e-01,9.789799451828002930e-01,9.787332415580749512e-01,9.786397218704223633e-01,9.783192276954650879e-01,9.781655669212341309e-01,9.780319929122924805e-01,9.779990911483764648e-01,9.775440096855163574e-01,9.774369001388549805e-01,9.772065877914428711e-01,9.773427248001098633e-01,9.771615862846374512e-01,9.772860407829284668e-01,9.772403836250305176e-01,9.775821566581726074e-01,9.777224063873291016e-01,9.779129624366760254e-01,9.779316782951354980e-01,9.785135984420776367e-01,9.787125587463378906e-01,9.793021082878112793e-01,9.796055555343627930e-01,9.805856347084045410e-01,9.813375473022460938e-01,9.820249080657958984e-01,9.825301766395568848e-01,9.836024045944213867e-01,9.838973879814147949e-01,9.849093556404113770e-01,9.856837391853332520e-01,9.868745207786560059e-01,9.876396059989929199e-01,9.884415864944458008e-01,9.890200495719909668e-01,9.896855950355529785e-01,9.897586107254028320e-01,9.902494549751281738e-01,9.906626343727111816e-01,9.908924102783203125e-01,9.909459352493286133e-01,9.909362196922302246e-01,9.908835291862487793e-01,9.901044964790344238e-01,9.894375801086425781e-01,9.888144135475158691e-01,9.883821606636047363e-01,9.865978956222534180e-01,9.857499599456787109e-01,9.847242832183837891e-01,9.842622280120849609e-01,9.817133545875549316e-01,9.811964035034179688e-01,9.793351888656616211e-01,9.791576266288757324e-01,9.767768979072570801e-01,9.757831692695617676e-01,9.741387963294982910e-01,9.737126827239990234e-01,9.720621705055236816e-01,9.715135097503662109e-01,9.700052142143249512e-01,9.696024656295776367e-01,9.689176678657531738e-01,9.683389663696289062e-01,9.676048755645751953e-01,9.671933054924011230e-01,9.672976136207580566e-01,9.678323864936828613e-01,9.679855108261108398e-01,9.685795903205871582e-01,9.707597494125366211e-01,9.737452864646911621e-01,9.756687879562377930e-01,9.771264195442199707e-01,9.797617197036743164e-01,9.826306700706481934e-01,9.848948121070861816e-01,9.865168333053588867e-01,9.882187843322753906e-01,9.901703000068664551e-01,9.916998147964477539e-01,9.930268526077270508e-01,9.936984777450561523e-01,9.944927692413330078e-01,9.945422410964965820e-01,9.944607019424438477e-01,9.942163228988647461e-01,9.938583970069885254e-01,9.932935237884521484e-01,9.925177097320556641e-01,9.919409155845642090e-01,9.914810657501220703e-01,9.906305670738220215e-01,9.899946451187133789e-01,9.894917011260986328e-01,9.892360568046569824e-01,9.888271093368530273e-01
9.793124198913574219e-01,9.788300991058349609e-01,9.787490963935852051e-01,9.787099361419677734e-01,9.784407615661621094e-01,9.781092405319213867e-01,9.779865145683288574e-01,9.779655337333679199e-01,9.776034355163574219e-01,9.770884513854980469e-01,9.770880937576293945e-01,9.770530462265014648e-01,9.769957661628723145e-01,9.765661954879760742e-01,9.764261841773986816e-01,9.763824939727783203e-01,9.761366844177246094e-01,9.756929278373718262e-01,9.756696820259094238e-01,9.755315780639648438e-01,9.754155874252319336e-01,9.750277996063232422e-01,9.747995138168334961e-01,9.746973514556884766e-01,9.746565818786621094e-01,9.743313193321228027e-01,9.741118550300598145e-01,9.740846157073974609e-01,9.739927649497985840e-01,9.736653566360473633e-01,9.735420942306518555e-01,9.734036922454833984e-01,9.734812974929809570e-01,9.733452796936035156e-01,9.733116626739501953e-01,9.733562469482421875e-01,9.735791087150573730e-01,9.738065004348754883e-01,9.740861654281616211e-01,9.742631316184997559e-01,9.747435450553894043e-01,9.749643802642822266e-01,9.752904772758483887e-01,9.758427739143371582e-01,9.767865538597106934e-01,9.775124192237854004e-01,9.780626893043518066e-01,9.786829948425292969e-01,9.796378016471862793e-01,9.800659418106079102e-01,9.807190895080566406e-01,9.814192056655883789e-01,9.826239943504333496e-01,9.835239052772521973e-01,9.843816161155700684e-01,9.849864840507507324e-01,9.856390357017517090e-01,9.860256314277648926e-01,9.863090515136718750e-01,9.866090416908264160e-01,9.869433641433715820e-01,9.870777130126953125e-01,9.869302511215209961e-01,9.867827892303466797e-01,9.860116839408874512e-01,9.857059717178344727e-01,9.850741624832153320e-01,9.845282435417175293e-01,9.831074476242065430e-01,9.822465777397155762e-01,9.815390706062316895e-01,9.804188609123229980e-01,9.787396192550659180e-01,9.780819416046142578e-01,9.772132635116577148e-01,9.763265252113342285e-01,9.746900796890258789e-01,9.736145138740539551e-01,9.727202653884887695e-01,9.715241789817810059e-01,9.703671932220458984e-01,9.699366688728332520e-01,9.688521623611450195e-01,9.682343602180480957e-01,9.674077033996582031e-01,9.670336842536926270e-01,9.661939740180969238e-01,9.658119678497314453e-01,9.660379290580749512e-01,9.664620161056518555e-01,9.666197896003723145e-01,9.672964811325073242e-01,9.691916704177856445e-01,9.719442725181579590e-01,9.737039208412170410e-01,9.752969145774841309e-01,9.779595136642456055e-01,9.801923632621765137e-01,9.819929599761962891e-01,9.837760329246520996e-01,9.856546521186828613e-01,9.874727725982666016e-01,9.887115955352783203e-01,9.899047017097473145e-01,9.909231066703796387e-01,9.915663599967956543e-01,9.916843175888061523e-01,9.917085766792297363e-01,9.917429089546203613e-01,9.912311434745788574e-01,9.906099438667297363e-01,9.900020360946655273e-01,9.896621704101562500e-01,9.889854192733764648e-01,9.883453845977783203e-01,9.878334999084472656e-01,9.874358177185058594e-01,9.871069788932800293e-01,9.866980910301208496e-01
9.752933979034423828e-01,9.750480055809020996e-01,9.750775694847106934e-01,9.749164581298828125e-01,9.745792150497436523e-01,9.742504358291625977e-01,9.741698503494262695e-01,9.740306138992309570e-01,9.736290574073791504e-01,9.732596874237060547e-01,9.732717871665954590e-01,9.731922745704650879e-01,9.729720354080200195e-01,9.726926088333129883e-01,9.725878238677978516e-01,9.724621176719665527e-01,9.722397327423095703e-01,9.718348383903503418e-01,9.718485474586486816e-01,9.717429280281066895e-01,9.715937376022338867e-01,9.712134003639221191e-01,9.711341261863708496e-01,9.710439443588256836e-01,9.709104299545288086e-01,9.706853032112121582e-01,9.705774784088134766e-01,9.704561233520507812e-01,9.704115390777587891e-01,9.702575206756591797e-01,9.700400829315185547e-01,9.700398445129394531e-01,9.700506329536437988e-01,9.698772430419921875e-01,9.698941707611083984e-01,9.698889255523681641e-01,9.701722860336303711e-01,9.703547358512878418e-01,9.705705046653747559e-01,9.708168506622314453e-01,9.712968468666076660e-01,9.715487957000732422e-01,9.719898700714111328e-01,9.723635911941528320e-01,9.732193946838378906e-01,9.739744067192077637e-01,9.746803641319274902e-01,9.752312898635864258e-01,9.762768149375915527e-01,9.767995476722717285e-01,9.774178862571716309e-01,9.779751300811767578e-01,9.791129827499389648e-01,9.800957441329956055e-01,9.809222817420959473e-01,9.816039800643920898e-01,9.823632240295410156e-01,9.827248454093933105e-01,9.829953312873840332e-01,9.835880994796752930e-01,9.838258624076843262e-01,9.840223789215087891e-01,9.839366674423217773e-01,9.837898612022399902e-01,9.831823110580444336e-01,9.828000068664550781e-01,9.821335673332214355e-01,9.817279577255249023e-01,9.804496765136718750e-01,9.796947836875915527e-01,9.789814352989196777e-01,9.782137274742126465e-01,9.770417809486389160e-01,9.762885570526123047e-01,9.751502275466918945e-01,9.745859503746032715e-01,9.732314348220825195e-01,9.723654985427856445e-01,9.716761112213134766e-01,9.708478450775146484e-01,9.699144959449768066e-01,9.696058630943298340e-01,9.685847163200378418e-01,9.678701758384704590e-01,9.669419527053833008e-01,9.666373133659362793e-01,9.662060737609863281e-01,9.658100605010986328e-01,9.657859206199645996e-01,9.660611152648925781e-01,9.662703275680541992e-01,9.667512774467468262e-01,9.683753848075866699e-01,9.707002639770507812e-01,9.724828600883483887e-01,9.737528562545776367e-01,9.761107563972473145e-01,9.779094457626342773e-01,9.797256588935852051e-01,9.811665415763854980e-01,9.831228852272033691e-01,9.846470355987548828e-01,9.857731461524963379e-01,9.870190620422363281e-01,9.878726005554199219e-01,9.884027838706970215e-01,9.886375069618225098e-01,9.887489080429077148e-01,9.885121583938598633e-01,9.882315993309020996e-01,9.877699613571166992e-01,9.873635172843933105e-01,9.866909980773925781e-01,9.862589836120605469e-01,9.856429696083068848e-01,9.850062727928161621e-01,9.847000837326049805e-01,9.845445752143859863e-01,9.841986894607543945e-01
9.703983068466186523e-01,9.701985120773315430e-01,9.701466560363769531e-01,9.699515104293823242e-01,9.696004390716552734e-01,9.693221449851989746e-01,9.692743420600891113e-01,9.690122008323669434e-01,9.686020612716674805e-01,9.683145880699157715e-01,9.683758616447448730e-01,9.681813716888427734e-01,9.679712057113647461e-01,9.678115248680114746e-01,9.676734209060668945e-01,9.674917459487915039e-01,9.672254323959350586e-01,9.670233130455017090e-01,9.669946432113647461e-01,9.669326543807983398e-01,9.668219089508056641e-01,9.665620326995849609e-01,9.664295911788940430e-01,9.663630127906799316e-01,9.663119316101074219e-01,9.660211801528930664e-01,9.658347368240356445e-01,9.657511115074157715e-01,9.657550454139709473e-01,9.655823707580566406e-01,9.654773473739624023e-01,9.654843807220458984e-01,9.653847217559814453e-01,9.652049541473388672e-01,9.652436375617980957e-01,9.652385115623474121e-01,9.654332399368286133e-01,9.657120108604431152e-01,9.660301804542541504e-01,9.662806391716003418e-01,9.667285084724426270e-01,9.670915007591247559e-01,9.675489664077758789e-01,9.679665565490722656e-01,9.685913324356079102e-01,9.693180322647094727e-01,9.697365164756774902e-01,9.703656435012817383e-01,9.713923335075378418e-01,9.721073508262634277e-01,9.725277423858642578e-01,9.733893275260925293e-01,9.744663834571838379e-01,9.755244851112365723e-01,9.761389493942260742e-01,9.770129919052124023e-01,9.775866866111755371e-01,9.781953096389770508e-01,9.784173369407653809e-01,9.791263341903686523e-01,9.794282317161560059e-01,9.794361591339111328e-01,9.794138073921203613e-01,9.794338345527648926e-01,9.788680076599121094e-01,9.783924818038940430e-01,9.781020283699035645e-01,9.778320789337158203e-01,9.767636060714721680e-01,9.757896661758422852e-01,9.754152297973632812e-01,9.746130108833312988e-01,9.739484190940856934e-01,9.729008674621582031e-01,9.724586009979248047e-01,9.717464447021484375e-01,9.708054065704345703e-01,9.699382781982421875e-01,9.695280790328979492e-01,9.687155485153198242e-01,9.680584669113159180e-01,9.673970937728881836e-01,9.665926098823547363e-01,9.660419821739196777e-01,9.653999209403991699e-01,9.650577306747436523e-01,9.645673632621765137e-01,9.641873240470886230e-01,9.643960595130920410e-01,9.644168019294738770e-01,9.644581079483032227e-01,9.650317430496215820e-01,9.666258096694946289e-01,9.689254760742187500e-01,9.701837301254272461e-01,9.715331792831420898e-01,9.736919403076171875e-01,9.755335450172424316e-01,9.770830869674682617e-01,9.784090518951416016e-01,9.801359176635742188e-01,9.821065664291381836e-01,9.833855032920837402e-01,9.844416975975036621e-01,9.850735068321228027e-01,9.855479001998901367e-01,9.860878586769104004e-01,9.859587550163269043e-01,9.858355522155761719e-01,9.855185747146606445e-01,9.854427576065063477e-01,9.848772287368774414e-01,9.842772483825683594e-01,9.839146137237548828e-01,9.835484623908996582e-01,9.829218387603759766e-01,9.826812148094177246e-01,9.824537634849548340e-01,9.821797609329223633e-01
9.667274355888366699e-01,9.664083123207092285e-01,9.663962125778198242e-01,9.662104249000549316e-01,9.659220576286315918e-01,9.656406044960021973e-01,9.654544591903686523e-01,9.652504920959472656e-01,9.649258255958557129e-01,9.646431207656860352e-01,9.646715521812438965e-01,9.644716382026672363e-01,9.641748070716857910e-01,9.640063643455505371e-01,9.638465642929077148e-01,9.637275934219360352e-01,9.633972048759460449e-01,9.631251096725463867e-01,9.632411599159240723e-01,9.631831645965576172e-01,9.628773927688598633e-01,9.626625776290893555e-01,9.626594781875610352e-01,9.626367092132568359e-01,9.624376893043518066e-01,9.621585011482238770e-01,9.620591998100280762e-01,9.618813991546630859e-01,9.618462920188903809e-01,9.617175459861755371e-01,9.616594314575195312e-01,9.615947008132934570e-01,9.615054130554199219e-01,9.613469839096069336e-01,9.614765644073486328e-01,9.613972306251525879e-01,9.616463184356689453e-01,9.618607759475708008e-01,9.621925354003906250e-01,9.624028205871582031e-01,9.628598093986511230e-01,9.630984663963317871e-01,9.636670351028442383e-01,9.640367031097412109e-01,9.646357893943786621e-01,9.653258323669433594e-01,9.659115076065063477e-01,9.664261341094970703e-01,9.674887061119079590e-01,9.680978059768676758e-01,9.688253402709960938e-01,9.692636132240295410e-01,9.703341722488403320e-01,9.713085293769836426e-01,9.718841314315795898e-01,9.726938605308532715e-01,9.735725522041320801e-01,9.739329218864440918e-01,9.744616150856018066e-01,9.750603437423706055e-01,9.752224683761596680e-01,9.752724766731262207e-01,9.750514030456542969e-01,9.752523899078369141e-01,9.747068881988525391e-01,9.742899537086486816e-01,9.737408757209777832e-01,9.737729430198669434e-01,9.727986454963684082e-01,9.719249010086059570e-01,9.713174104690551758e-01,9.709892272949218750e-01,9.702656269073486328e-01,9.696834087371826172e-01,9.690757989883422852e-01,9.685121178627014160e-01,9.680792689323425293e-01,9.672462940216064453e-01,9.670383334159851074e-01,9.662696123123168945e-01,9.659529924392700195e-01,9.653705954551696777e-01,9.648311734199523926e-01,9.641976356506347656e-01,9.635803699493408203e-01,9.633491039276123047e-01,9.629828333854675293e-01,9.624613523483276367e-01,9.623615145683288574e-01,9.626178145408630371e-01,9.629819393157958984e-01,9.631267786026000977e-01,9.646896123886108398e-01,9.667596220970153809e-01,9.682747721672058105e-01,9.693059325218200684e-01,9.713762402534484863e-01,9.730864763259887695e-01,9.747865200042724609e-01,9.758936166763305664e-01,9.776628017425537109e-01,9.793351888656616211e-01,9.806031584739685059e-01,9.816330671310424805e-01,9.823241233825683594e-01,9.827476143836975098e-01,9.829180836677551270e-01,9.830203652381896973e-01,9.829741716384887695e-01,9.828159213066101074e-01,9.826387166976928711e-01,9.822039604187011719e-01,9.818254709243774414e-01,9.814088940620422363e-01,9.810181856155395508e-01,9.807544946670532227e-01,9.806156754493713379e-01,9.804114103317260742e-01,9.802561998367309570e-01
9.619965553283691406e-01,9.617859721183776855e-01,9.615304470062255859e-01,9.614070057868957520e-01,9.611167907714843750e-01,9.608032703399658203e-01,9.606386423110961914e-01,9.604623317718505859e-01,9.600024819374084473e-01,9.596915245056152344e-01,9.596158862113952637e-01,9.595876932144165039e-01,9.593315720558166504e-01,9.589962959289550781e-01,9.588430523872375488e-01,9.588651657104492188e-01,9.585047364234924316e-01,9.581978321075439453e-01,9.582802653312683105e-01,9.581578969955444336e-01,9.578651785850524902e-01,9.576147794723510742e-01,9.575826525688171387e-01,9.576753973960876465e-01,9.573767781257629395e-01,9.570649266242980957e-01,9.569811820983886719e-01,9.569378495216369629e-01,9.568010568618774414e-01,9.566411375999450684e-01,9.564659595489501953e-01,9.564985632896423340e-01,9.563356637954711914e-01,9.561724662780761719e-01,9.562862515449523926e-01,9.562994241714477539e-01,9.564937353134155273e-01,9.566952586174011230e-01,9.568989872932434082e-01,9.571112394332885742e-01,9.575788378715515137e-01,9.578464031219482422e-01,9.584474563598632812e-01,9.587237834930419922e-01,9.592684507369995117e-01,9.600199460983276367e-01,9.605045914649963379e-01,9.609345793724060059e-01,9.618566632270812988e-01,9.624913930892944336e-01,9.630449414253234863e-01,9.636450409889221191e-01,9.648270606994628906e-01,9.657140970230102539e-01,9.664964079856872559e-01,9.673022031784057617e-01,9.677764773368835449e-01,9.684413671493530273e-01,9.689870476722717285e-01,9.694982767105102539e-01,9.698647856712341309e-01,9.699205160140991211e-01,9.699836969375610352e-01,9.700793623924255371e-01,9.698964357376098633e-01,9.696811437606811523e-01,9.694392085075378418e-01,9.692407250404357910e-01,9.685200452804565430e-01,9.678309559822082520e-01,9.675737619400024414e-01,9.670484662055969238e-01,9.667329788208007812e-01,9.662834405899047852e-01,9.658215045928955078e-01,9.654581546783447266e-01,9.652025103569030762e-01,9.647608399391174316e-01,9.642924070358276367e-01,9.638200998306274414e-01,9.638756513595581055e-01,9.633609652519226074e-01,9.629026055335998535e-01,9.625936746597290039e-01,9.621819257736206055e-01,9.618317484855651855e-01,9.614695310592651367e-01,9.613285660743713379e-01,9.613808989524841309e-01,9.613397121429443359e-01,9.615737795829772949e-01,9.619128108024597168e-01,9.633487462997436523e-01,9.651372432708740234e-01,9.667429924011230469e-01,9.678975343704223633e-01,9.697759151458740234e-01,9.713070392608642578e-01,9.726408123970031738e-01,9.738230109214782715e-01,9.755545258522033691e-01,9.770839810371398926e-01,9.780093431472778320e-01,9.792784452438354492e-01,9.799486994743347168e-01,9.802812933921813965e-01,9.804501533508300781e-01,9.804598093032836914e-01,9.805220365524291992e-01,9.803564548492431641e-01,9.800554513931274414e-01,9.797541499137878418e-01,9.795859456062316895e-01,9.792261123657226562e-01,9.789329767227172852e-01,9.787509441375732422e-01,9.786933660507202148e-01,9.785138964653015137e-01,9.781996607780456543e-01
9.589115381240844727e-01,9.587232470512390137e-01,9.585675001144409180e-01,9.583797454833984375e-01,9.580584168434143066e-01,9.577739834785461426e-01,9.575451612472534180e-01,9.572785496711730957e-01,9.569380283355712891e-01,9.566109776496887207e-01,9.565491676330566406e-01,9.564853310585021973e-01,9.561675190925598145e-01,9.557732939720153809e-01,9.555682539939880371e-01,9.556239247322082520e-01,9.553731679916381836e-01,9.549538493156433105e-01,9.550005197525024414e-01,9.548196196556091309e-01,9.545357227325439453e-01,9.543726444244384766e-01,9.543496966361999512e-01,9.542603492736816406e-01,9.541152715682983398e-01,9.537570476531982422e-01,9.537930488586425781e-01,9.537442326545715332e-01,9.535870552062988281e-01,9.532870054244995117e-01,9.531894922256469727e-01,9.532108306884765625e-01,9.530224204063415527e-01,9.528238773345947266e-01,9.530126452445983887e-01,9.530438184738159180e-01,9.531800746917724609e-01,9.533985853195190430e-01,9.536300897598266602e-01,9.538286328315734863e-01,9.543105363845825195e-01,9.545598626136779785e-01,9.549847245216369629e-01,9.553025364875793457e-01,9.559050798416137695e-01,9.565829634666442871e-01,9.571373462677001953e-01,9.576070308685302734e-01,9.586509466171264648e-01,9.592242836952209473e-01,9.600087404251098633e-01,9.604659676551818848e-01,9.614753723144531250e-01,9.623844623565673828e-01,9.633356332778930664e-01,9.637669324874877930e-01,9.645012617111206055e-01,9.652140736579895020e-01,9.658161997795104980e-01,9.663405418395996094e-01,9.669159650802612305e-01,9.671202898025512695e-01,9.671547412872314453e-01,9.671195149421691895e-01,9.669860601425170898e-01,9.669610857963562012e-01,9.666973352432250977e-01,9.665819406509399414e-01,9.659291505813598633e-01,9.655905961990356445e-01,9.652299880981445312e-01,9.649848937988281250e-01,9.646419286727905273e-01,9.642661213874816895e-01,9.640163183212280273e-01,9.639200568199157715e-01,9.634409546852111816e-01,9.629917740821838379e-01,9.627180099487304688e-01,9.625700116157531738e-01,9.624008536338806152e-01,9.621400833129882812e-01,9.616471529006958008e-01,9.613381624221801758e-01,9.607299566268920898e-01,9.602280855178833008e-01,9.599307179450988770e-01,9.597467780113220215e-01,9.596838355064392090e-01,9.597164392471313477e-01,9.600572586059570312e-01,9.604523181915283203e-01,9.617826938629150391e-01,9.635826945304870605e-01,9.647803902626037598e-01,9.658111929893493652e-01,9.676195383071899414e-01,9.689758419990539551e-01,9.704791307449340820e-01,9.714928865432739258e-01,9.730554819107055664e-01,9.744434952735900879e-01,9.753494262695312500e-01,9.762299060821533203e-01,9.768376350402832031e-01,9.773252010345458984e-01,9.777157902717590332e-01,9.778650999069213867e-01,9.778514504432678223e-01,9.776251912117004395e-01,9.774927496910095215e-01,9.772586226463317871e-01,9.770113825798034668e-01,9.769123792648315430e-01,9.767042398452758789e-01,9.765607714653015137e-01,9.764317274093627930e-01,9.763097763061523438e-01,9.760081171989440918e-01
9.553223252296447754e-01,9.551505446434020996e-01,9.550713896751403809e-01,9.548391699790954590e-01,9.544915556907653809e-01,9.542868733406066895e-01,9.540104269981384277e-01,9.537700414657592773e-01,9.534015059471130371e-01,9.531490802764892578e-01,9.531731605529785156e-01,9.529466032981872559e-01,9.527255296707153320e-01,9.524782299995422363e-01,9.523245692253112793e-01,9.520511031150817871e-01,9.517762064933776855e-01,9.514783620834350586e-01,9.514561295509338379e-01,9.513729214668273926e-01,9.510175585746765137e-01,9.507697224617004395e-01,9.508196115493774414e-01,9.507906436920166016e-01,9.505342245101928711e-01,9.503105878829956055e-01,9.502421021461486816e-01,9.501981735229492188e-01,9.500169754028320312e-01,9.497707486152648926e-01,9.496921300888061523e-01,9.496613144874572754e-01,9.496024847030639648e-01,9.494982361793518066e-01,9.494901895523071289e-01,9.494801759719848633e-01,9.495913982391357422e-01,9.498128294944763184e-01,9.500199556350708008e-01,9.502140879631042480e-01,9.506399035453796387e-01,9.509890675544738770e-01,9.512687325477600098e-01,9.517132639884948730e-01,9.523102045059204102e-01,9.528253674507141113e-01,9.533548951148986816e-01,9.539365768432617188e-01,9.546947479248046875e-01,9.552566409111022949e-01,9.559113979339599609e-01,9.566155672073364258e-01,9.575885534286499023e-01,9.583981633186340332e-01,9.590874910354614258e-01,9.598183631896972656e-01,9.606612920761108398e-01,9.612860679626464844e-01,9.618742465972900391e-01,9.624533653259277344e-01,9.630106091499328613e-01,9.630291461944580078e-01,9.630822539329528809e-01,9.631497859954833984e-01,9.632038474082946777e-01,9.631685614585876465e-01,9.631534218788146973e-01,9.630075097084045410e-01,9.625524282455444336e-01,9.622977972030639648e-01,9.621949195861816406e-01,9.618360400199890137e-01,9.614340066909790039e-01,9.612483978271484375e-01,9.611672163009643555e-01,9.608846902847290039e-01,9.605261087417602539e-01,9.605326056480407715e-01,9.605610966682434082e-01,9.602639079093933105e-01,9.600547552108764648e-01,9.600466489791870117e-01,9.597680568695068359e-01,9.593800306320190430e-01,9.586756825447082520e-01,9.585598111152648926e-01,9.584177732467651367e-01,9.582877159118652344e-01,9.582200646400451660e-01,9.584106206893920898e-01,9.587460756301879883e-01,9.592657089233398438e-01,9.607407450675964355e-01,9.620657563209533691e-01,9.630368947982788086e-01,9.641653895378112793e-01,9.657873511314392090e-01,9.670188426971435547e-01,9.682989120483398438e-01,9.693391919136047363e-01,9.706935882568359375e-01,9.719902276992797852e-01,9.729558229446411133e-01,9.738725423812866211e-01,9.744296073913574219e-01,9.749351143836975098e-01,9.752319455146789551e-01,9.752712249755859375e-01,9.753140807151794434e-01,9.754765033721923828e-01,9.755104184150695801e-01,9.753460288047790527e-01,9.749301671981811523e-01,9.748747348785400391e-01,9.747238755226135254e-01,9.745306968688964844e-01,9.743461608886718750e-01,9.742382168769836426e-01,9.739395976066589355e-01
9.518480300903320312e-01,9.516146779060363770e-01,9.514464139938354492e-01,9.512361288070678711e-01,9.509879946708679199e-01,9.506567120552062988e-01,9.505171179771423340e-01,9.502632021903991699e-01,9.499289393424987793e-01,9.498512148857116699e-01,9.497291445732116699e-01,9.495062828063964844e-01,9.491336345672607422e-01,9.488168954849243164e-01,9.486188292503356934e-01,9.485403299331665039e-01,9.482004642486572266e-01,9.478596448898315430e-01,9.477744102478027344e-01,9.476674199104309082e-01,9.474766850471496582e-01,9.470865726470947266e-01,9.470954537391662598e-01,9.471486806869506836e-01,9.468213319778442383e-01,9.465147256851196289e-01,9.465185999870300293e-01,9.464807510375976562e-01,9.462772607803344727e-01,9.460944533348083496e-01,9.460659623146057129e-01,9.459888339042663574e-01,9.458834528923034668e-01,9.457290172576904297e-01,9.458613395690917969e-01,9.458566904067993164e-01,9.459525346755981445e-01,9.462196230888366699e-01,9.464446902275085449e-01,9.466927051544189453e-01,9.470892548561096191e-01,9.473465681076049805e-01,9.478197097778320312e-01,9.481818079948425293e-01,9.486613273620605469e-01,9.493017196655273438e-01,9.500185847282409668e-01,9.505292773246765137e-01,9.512794017791748047e-01,9.519227743148803711e-01,9.523494243621826172e-01,9.529965519905090332e-01,9.538412094116210938e-01,9.546215534210205078e-01,9.553670287132263184e-01,9.561641812324523926e-01,9.568061828613281250e-01,9.574640989303588867e-01,9.582077860832214355e-01,9.586830735206604004e-01,9.590657949447631836e-01,9.593093991279602051e-01,9.593556523323059082e-01,9.594451189041137695e-01,9.595677256584167480e-01,9.595613479614257812e-01,9.596197605133056641e-01,9.594625830650329590e-01,9.591645002365112305e-01,9.590096473693847656e-01,9.587646722793579102e-01,9.585651755332946777e-01,9.584078192710876465e-01,9.581761360168457031e-01,9.580686688423156738e-01,9.579320549964904785e-01,9.579894542694091797e-01,9.580339193344116211e-01,9.577332139015197754e-01,9.575790762901306152e-01,9.577084779739379883e-01,9.575582742691040039e-01,9.574613571166992188e-01,9.571824073791503906e-01,9.568783640861511230e-01,9.566450715065002441e-01,9.565809965133666992e-01,9.564716219902038574e-01,9.566950201988220215e-01,9.566616415977478027e-01,9.571229219436645508e-01,9.575337767601013184e-01,9.588348269462585449e-01,9.601233005523681641e-01,9.612978696823120117e-01,9.621662497520446777e-01,9.635211825370788574e-01,9.647163152694702148e-01,9.659307003021240234e-01,9.668750762939453125e-01,9.681094288825988770e-01,9.694405794143676758e-01,9.702933430671691895e-01,9.710342884063720703e-01,9.716488718986511230e-01,9.719595909118652344e-01,9.722368121147155762e-01,9.725388884544372559e-01,9.727095365524291992e-01,9.727178812026977539e-01,9.727674126625061035e-01,9.727377295494079590e-01,9.726696014404296875e-01,9.723747372627258301e-01,9.723128676414489746e-01,9.721937775611877441e-01,9.720465540885925293e-01,9.718918204307556152e-01,9.716245532035827637e-01
9.490708708763122559e-01,9.489669799804687500e-01,9.486835598945617676e-01,9.484689235687255859e-01,9.482693672180175781e-01,9.479399919509887695e-01,9.476674199104309082e-01,9.473913908004760742e-01,9.469524621963500977e-01,9.468604326248168945e-01,9.466863870620727539e-01,9.463333487510681152e-01,9.460610747337341309e-01,9.457142353057861328e-01,9.456028938293457031e-01,9.452523589134216309e-01,9.450339674949645996e-01,9.448134899139404297e-01,9.446886777877807617e-01,9.444336295127868652e-01,9.441854357719421387e-01,9.439780116081237793e-01,9.440188407897949219e-01,9.438718557357788086e-01,9.434651136398315430e-01,9.432771205902099609e-01,9.433782696723937988e-01,9.432610273361206055e-01,9.429844021797180176e-01,9.429127573966979980e-01,9.428892135620117188e-01,9.427621364593505859e-01,9.426230192184448242e-01,9.425135254859924316e-01,9.425976276397705078e-01,9.425411820411682129e-01,9.425669312477111816e-01,9.428514838218688965e-01,9.431200623512268066e-01,9.433614611625671387e-01,9.436857104301452637e-01,9.440549612045288086e-01,9.444934129714965820e-01,9.448149204254150391e-01,9.451417922973632812e-01,9.457533359527587891e-01,9.463297128677368164e-01,9.469972848892211914e-01,9.477870464324951172e-01,9.483469724655151367e-01,9.488813281059265137e-01,9.494974017143249512e-01,9.504039883613586426e-01,9.511715173721313477e-01,9.520649313926696777e-01,9.527387022972106934e-01,9.535496234893798828e-01,9.541079998016357422e-01,9.546927213668823242e-01,9.552904367446899414e-01,9.558695554733276367e-01,9.560461640357971191e-01,9.562145471572875977e-01,9.563567042350769043e-01,9.567167162895202637e-01,9.566532373428344727e-01,9.566383957862854004e-01,9.566788673400878906e-01,9.565064907073974609e-01,9.563330411911010742e-01,9.561736583709716797e-01,9.560562968254089355e-01,9.560233950614929199e-01,9.556465148925781250e-01,9.556753039360046387e-01,9.556417465209960938e-01,9.558798074722290039e-01,9.557321071624755859e-01,9.556095004081726074e-01,9.557259082794189453e-01,9.559870958328247070e-01,9.558370709419250488e-01,9.555749297142028809e-01,9.553899168968200684e-01,9.551590681076049805e-01,9.549998641014099121e-01,9.549245238304138184e-01,9.549283385276794434e-01,9.552437067031860352e-01,9.551782011985778809e-01,9.554657340049743652e-01,9.560546278953552246e-01,9.572965502738952637e-01,9.584531188011169434e-01,9.595595598220825195e-01,9.604446291923522949e-01,9.617614150047302246e-01,9.627959132194519043e-01,9.639443159103393555e-01,9.647316336631774902e-01,9.656785130500793457e-01,9.668608903884887695e-01,9.677557945251464844e-01,9.684895277023315430e-01,9.691171050071716309e-01,9.695051908493041992e-01,9.698250889778137207e-01,9.701651930809020996e-01,9.704207181930541992e-01,9.704434275627136230e-01,9.702933430671691895e-01,9.703091382980346680e-01,9.702690839767456055e-01,9.701915383338928223e-01,9.700812697410583496e-01,9.698640108108520508e-01,9.697194099426269531e-01,9.696257114410400391e-01,9.691820740699768066e-01
9.465960264205932617e-01,9.464924335479736328e-01,9.462724924087524414e-01,9.459461569786071777e-01,9.456653594970703125e-01,9.454349279403686523e-01,9.450744986534118652e-01,9.447895884513854980e-01,9.445377588272094727e-01,9.442705512046813965e-01,9.441061615943908691e-01,9.438313841819763184e-01,9.435360431671142578e-01,9.432350397109985352e-01,9.429855346679687500e-01,9.427472949028015137e-01,9.424889683723449707e-01,9.423483610153198242e-01,9.420533180236816406e-01,9.417479634284973145e-01,9.416160583496093750e-01,9.413318037986755371e-01,9.411682486534118652e-01,9.409838914871215820e-01,9.407660961151123047e-01,9.406249523162841797e-01,9.405224323272705078e-01,9.404297471046447754e-01,9.402998685836791992e-01,9.400886297225952148e-01,9.400432109832763672e-01,9.400102496147155762e-01,9.398990273475646973e-01,9.398719668388366699e-01,9.398890137672424316e-01,9.399100542068481445e-01,9.399453401565551758e-01,9.402047395706176758e-01,9.405265450477600098e-01,9.406858086585998535e-01,9.410206079483032227e-01,9.414093494415283203e-01,9.418484568595886230e-01,9.421460032463073730e-01,9.427137374877929688e-01,9.432261586189270020e-01,9.438743591308593750e-01,9.444472789764404297e-01,9.452335238456726074e-01,9.457809329032897949e-01,9.463129043579101562e-01,9.468914866447448730e-01,9.476741552352905273e-01,9.484359622001647949e-01,9.493492841720581055e-01,9.501316547393798828e-01,9.508867859840393066e-01,9.514685273170471191e-01,9.521731138229370117e-01,9.527648687362670898e-01,9.531049132347106934e-01,9.533666372299194336e-01,9.537293910980224609e-01,9.540870189666748047e-01,9.542498588562011719e-01,9.543910622596740723e-01,9.544743895530700684e-01,9.544816613197326660e-01,9.544450640678405762e-01,9.544374346733093262e-01,9.543170332908630371e-01,9.543133378028869629e-01,9.540920257568359375e-01,9.540015459060668945e-01,9.539579153060913086e-01,9.541081786155700684e-01,9.542281031608581543e-01,9.543520808219909668e-01,9.541186094284057617e-01,9.542603492736816406e-01,9.544272422790527344e-01,9.545912146568298340e-01,9.543243050575256348e-01,9.540900588035583496e-01,9.538852572441101074e-01,9.540436267852783203e-01,9.540760517120361328e-01,9.541125297546386719e-01,9.542439579963684082e-01,9.542681574821472168e-01,9.547513723373413086e-01,9.552797079086303711e-01,9.564580917358398438e-01,9.575869441032409668e-01,9.585980176925659180e-01,9.591867327690124512e-01,9.603568911552429199e-01,9.612894654273986816e-01,9.624097943305969238e-01,9.631695747375488281e-01,9.641842246055603027e-01,9.650866985321044922e-01,9.659307003021240234e-01,9.666150212287902832e-01,9.671046733856201172e-01,9.675495028495788574e-01,9.678528308868408203e-01,9.681932330131530762e-01,9.684827327728271484e-01,9.686167836189270020e-01,9.686227440834045410e-01,9.686239361763000488e-01,9.685320258140563965e-01,9.685475826263427734e-01,9.684063792228698730e-01,9.682025909423828125e-01,9.680948853492736816e-01,9.679098129272460938e-01,9.675098061561584473e-01
9.448602199554443359e-01,9.445612430572509766e-01,9.442626833915710449e-01,9.440069198608398438e-01,9.437937736511230469e-01,9.434288740158081055e-01,9.428560137748718262e-01,9.426323771476745605e-01,9.423363804817199707e-01,9.420920610427856445e-01,9.419132471084594727e-01,9.416840076446533203e-01,9.413324594497680664e-01,9.410074353218078613e-01,9.405860304832458496e-01,9.403849244117736816e-01,9.401308298110961914e-01,9.399564266204833984e-01,9.396575689315795898e-01,9.394652247428894043e-01,9.392165541648864746e-01,9.389716982841491699e-01,9.387076497077941895e-01,9.385499954223632812e-01,9.383431673049926758e-01,9.382479786872863770e-01,9.380959868431091309e-01,9.379827976226806641e-01,9.378861188888549805e-01,9.376735091209411621e-01,9.376128315925598145e-01,9.375632405281066895e-01,9.374766945838928223e-01,9.373256564140319824e-01,9.373469948768615723e-01,9.374197125434875488e-01,9.374587535858154297e-01,9.376305341720581055e-01,9.379439949989318848e-01,9.381648898124694824e-01,9.386930465698242188e-01,9.390073418617248535e-01,9.393885135650634766e-01,9.397083520889282227e-01,9.402666687965393066e-01,9.408441781997680664e-01,9.414305090904235840e-01,9.419096708297729492e-01,9.426549077033996582e-01,9.432463049888610840e-01,9.439367055892944336e-01,9.443839788436889648e-01,9.452806711196899414e-01,9.460741877555847168e-01,9.469996094703674316e-01,9.477236270904541016e-01,9.485235810279846191e-01,9.491102099418640137e-01,9.498072266578674316e-01,9.502815008163452148e-01,9.507737159729003906e-01,9.509664177894592285e-01,9.515495896339416504e-01,9.518883824348449707e-01,9.520975947380065918e-01,9.522068500518798828e-01,9.523206353187561035e-01,9.522982835769653320e-01,9.523564577102661133e-01,9.524070620536804199e-01,9.525555372238159180e-01,9.525654911994934082e-01,9.524191617965698242e-01,9.523248672485351562e-01,9.524205923080444336e-01,9.525206089019775391e-01,9.526143670082092285e-01,9.527167677879333496e-01,9.526488184928894043e-01,9.528705477714538574e-01,9.531515836715698242e-01,9.533242583274841309e-01,9.531880021095275879e-01,9.530853033065795898e-01,9.529850482940673828e-01,9.530189633369445801e-01,9.531525373458862305e-01,9.532926082611083984e-01,9.533408284187316895e-01,9.534420371055603027e-01,9.538991451263427734e-01,9.543684720993041992e-01,9.554833769798278809e-01,9.563985466957092285e-01,9.573073983192443848e-01,9.578915834426879883e-01,9.588931202888488770e-01,9.598262906074523926e-01,9.607942104339599609e-01,9.615579247474670410e-01,9.625395536422729492e-01,9.634307622909545898e-01,9.642559289932250977e-01,9.648000001907348633e-01,9.652503132820129395e-01,9.656818509101867676e-01,9.660096764564514160e-01,9.664888381958007812e-01,9.667497873306274414e-01,9.668893218040466309e-01,9.667581915855407715e-01,9.667420387268066406e-01,9.666975736618041992e-01,9.666920900344848633e-01,9.664484262466430664e-01,9.663251638412475586e-01,9.661347270011901855e-01,9.659959077835083008e-01,9.655467271804809570e-01
9.434242844581604004e-01,9.431964159011840820e-01,9.428465962409973145e-01,9.425931572914123535e-01,9.422740340232849121e-01,9.419480562210083008e-01,9.416278004646301270e-01,9.412598013877868652e-01,9.409556388854980469e-01,9.406875967979431152e-01,9.404161572456359863e-01,9.401907920837402344e-01,9.398375153541564941e-01,9.394466876983642578e-01,9.389953613281250000e-01,9.387241601943969727e-01,9.384387135505676270e-01,9.381381273269653320e-01,9.378752708435058594e-01,9.377090334892272949e-01,9.375419616699218750e-01,9.372957944869995117e-01,9.370187520980834961e-01,9.368096590042114258e-01,9.366010427474975586e-01,9.364528656005859375e-01,9.362534284591674805e-01,9.361385107040405273e-01,9.359517693519592285e-01,9.358386993408203125e-01,9.356996417045593262e-01,9.356185197830200195e-01,9.356071949005126953e-01,9.354442954063415527e-01,9.353790879249572754e-01,9.353823661804199219e-01,9.354836344718933105e-01,9.356877207756042480e-01,9.360120296478271484e-01,9.362517595291137695e-01,9.366261959075927734e-01,9.369294047355651855e-01,9.374652504920959473e-01,9.378419518470764160e-01,9.383196830749511719e-01,9.389770627021789551e-01,9.395347833633422852e-01,9.400179982185363770e-01,9.408089518547058105e-01,9.412925243377685547e-01,9.419931173324584961e-01,9.426183104515075684e-01,9.433100223541259766e-01,9.441511034965515137e-01,9.450703859329223633e-01,9.457899332046508789e-01,9.466424584388732910e-01,9.472660422325134277e-01,9.480215907096862793e-01,9.486184120178222656e-01,9.490302205085754395e-01,9.493690729141235352e-01,9.497005343437194824e-01,9.501785635948181152e-01,9.504676461219787598e-01,9.505667686462402344e-01,9.507582783699035645e-01,9.509919881820678711e-01,9.511144757270812988e-01,9.511772394180297852e-01,9.512147903442382812e-01,9.512447714805603027e-01,9.513983726501464844e-01,9.512538313865661621e-01,9.514877200126647949e-01,9.517122507095336914e-01,9.517970681190490723e-01,9.519669413566589355e-01,9.520058631896972656e-01,9.522017836570739746e-01,9.525097012519836426e-01,9.525955915451049805e-01,9.525555372238159180e-01,9.525498151779174805e-01,9.525839090347290039e-01,9.526687264442443848e-01,9.528317451477050781e-01,9.528414011001586914e-01,9.531369805335998535e-01,9.532741904258728027e-01,9.536551237106323242e-01,9.541889429092407227e-01,9.552305340766906738e-01,9.560368061065673828e-01,9.570944905281066895e-01,9.575759172439575195e-01,9.587550163269042969e-01,9.595538973808288574e-01,9.601998329162597656e-01,9.609626531600952148e-01,9.617999792098999023e-01,9.627278447151184082e-01,9.633864760398864746e-01,9.639164209365844727e-01,9.642161130905151367e-01,9.646801948547363281e-01,9.647595882415771484e-01,9.650798439979553223e-01,9.654080271720886230e-01,9.656105041503906250e-01,9.655017852783203125e-01,9.655627012252807617e-01,9.654787182807922363e-01,9.653940200805664062e-01,9.651764035224914551e-01,9.650196433067321777e-01,9.647082686424255371e-01,9.644814133644104004e-01,9.641627073287963867e-01
