8.388350605964660645e-01,8.392928838729858398e-01,8.398011326789855957e-01,8.403428196907043457e-01,8.407830595970153809e-01,8.412281870841979980e-01,8.417263627052307129e-01,8.421527147293090820e-01,8.425054550170898438e-01,8.428331017494201660e-01,8.431836366653442383e-01,8.435280323028564453e-01,8.438296318054199219e-01,8.440972566604614258e-01,8.443917632102966309e-01,8.446729779243469238e-01,8.449157476425170898e-01,8.451606035232543945e-01,8.454331755638122559e-01,8.456940650939941406e-01,8.459175229072570801e-01,8.461640477180480957e-01,8.464142680168151855e-01,8.466508984565734863e-01,8.468539714813232422e-01,8.470191955566406250e-01,8.471813797950744629e-01,8.473100066184997559e-01,8.474368453025817871e-01,8.475475907325744629e-01,8.476590514183044434e-01,8.477633595466613770e-01,8.478730320930480957e-01,8.480069637298583984e-01,8.481467962265014648e-01,8.482723832130432129e-01,8.483885526657104492e-01,8.485161662101745605e-01,8.486381173133850098e-01,8.486837148666381836e-01,8.487637639045715332e-01,8.488755822181701660e-01,8.489916324615478516e-01,8.490394949913024902e-01,8.491472601890563965e-01,8.493623733520507812e-01,8.495666980743408203e-01,8.496998548507690430e-01,8.498898148536682129e-01,8.503727316856384277e-01,8.508836030960083008e-01,8.514086008071899414e-01,8.518925309181213379e-01,8.527539372444152832e-01,8.536443710327148438e-01,8.544996976852416992e-01,8.552320003509521484e-01,8.564425110816955566e-01,8.577298521995544434e-01,8.591136932373046875e-01,8.602569103240966797e-01,8.619922995567321777e-01,8.638033866882324219e-01,8.656420111656188965e-01,8.671858906745910645e-01,8.693732023239135742e-01,8.716011643409729004e-01,8.739008307456970215e-01,8.758349418640136719e-01,8.785055875778198242e-01,8.810876011848449707e-01,8.837059736251831055e-01,8.858991861343383789e-01,8.886175155639648438e-01,8.911004066467285156e-01,8.937243819236755371e-01,8.959152698516845703e-01,8.986472487449645996e-01,9.011046290397644043e-01,9.036374092102050781e-01,9.059333801269531250e-01,9.082924723625183105e-01,9.103361368179321289e-01,9.121707081794738770e-01,9.137777686119079590e-01,9.157277941703796387e-01,9.174498319625854492e-01,9.187706112861633301e-01,9.200848937034606934e-01,9.210576415061950684e-01,9.218465089797973633e-01,9.219726920127868652e-01,9.223513007164001465e-01,9.225748777389526367e-01,9.227935671806335449e-01,9.222513437271118164e-01,9.220665097236633301e-01,9.211999773979187012e-01,9.200501441955566406e-01,9.180330634117126465e-01,9.166577458381652832e-01,9.146219491958618164e-01,9.127425551414489746e-01,9.103938341140747070e-01,9.087618589401245117e-01,9.056745171546936035e-01,9.029344916343688965e-01,8.993000388145446777e-01,8.968685269355773926e-01,8.930019736289978027e-01,8.896652460098266602e-01,8.863799571990966797e-01,8.839849829673767090e-01,8.802570104598999023e-01,8.771941661834716797e-01,8.738015890121459961e-01,8.712873458862304688e-01,8.677754998207092285e-01,8.647561073303222656e-01
8.386518359184265137e-01,8.390994668006896973e-01,8.395636677742004395e-01,8.400965929031372070e-01,8.404873013496398926e-01,8.409163951873779297e-01,8.413771986961364746e-01,8.417999148368835449e-01,8.421105146408081055e-01,8.424301147460937500e-01,8.427432179450988770e-01,8.430894017219543457e-01,8.433476686477661133e-01,8.436077833175659180e-01,8.438772559165954590e-01,8.441602587699890137e-01,8.443725109100341797e-01,8.446028232574462891e-01,8.448479771614074707e-01,8.451161980628967285e-01,8.453086614608764648e-01,8.455406427383422852e-01,8.457718491554260254e-01,8.460128307342529297e-01,8.461917638778686523e-01,8.463432192802429199e-01,8.464878201484680176e-01,8.466269373893737793e-01,8.467209339141845703e-01,8.468196988105773926e-01,8.469217419624328613e-01,8.470349311828613281e-01,8.471198678016662598e-01,8.472355604171752930e-01,8.473671674728393555e-01,8.475133180618286133e-01,8.475995659828186035e-01,8.476999402046203613e-01,8.478096127510070801e-01,8.478761911392211914e-01,8.479050397872924805e-01,8.479761481285095215e-01,8.480767011642456055e-01,8.481682538986206055e-01,8.481875658035278320e-01,8.483150005340576172e-01,8.485040664672851562e-01,8.486811518669128418e-01,8.487538695335388184e-01,8.491267561912536621e-01,8.496099114418029785e-01,8.501747846603393555e-01,8.505076766014099121e-01,8.512198328971862793e-01,8.520643115043640137e-01,8.529084324836730957e-01,8.534778952598571777e-01,8.545495867729187012e-01,8.557195663452148438e-01,8.570832610130310059e-01,8.580718040466308594e-01,8.596512079238891602e-01,8.612818717956542969e-01,8.630937933921813965e-01,8.644807934761047363e-01,8.665184974670410156e-01,8.684826493263244629e-01,8.707620501518249512e-01,8.725213408470153809e-01,8.750543594360351562e-01,8.773484230041503906e-01,8.798594474792480469e-01,8.819093704223632812e-01,8.845674395561218262e-01,8.868165612220764160e-01,8.893679976463317871e-01,8.914321064949035645e-01,8.941076993942260742e-01,8.963338136672973633e-01,8.987719416618347168e-01,9.009246230125427246e-01,9.032247662544250488e-01,9.050744175910949707e-01,9.069356918334960938e-01,9.084766507148742676e-01,9.103199839591979980e-01,9.118718504905700684e-01,9.131107926368713379e-01,9.143326282501220703e-01,9.152305722236633301e-01,9.158731698989868164e-01,9.160292148590087891e-01,9.163036942481994629e-01,9.163660407066345215e-01,9.165201187133789062e-01,9.159296154975891113e-01,9.156840443611145020e-01,9.147025346755981445e-01,9.136521816253662109e-01,9.116620421409606934e-01,9.103124737739562988e-01,9.081749916076660156e-01,9.064828753471374512e-01,9.041498899459838867e-01,9.025360941886901855e-01,8.994877338409423828e-01,8.969922661781311035e-01,8.935310244560241699e-01,8.911193609237670898e-01,8.873421549797058105e-01,8.843173384666442871e-01,8.811248540878295898e-01,8.788451552391052246e-01,8.752340674400329590e-01,8.725082874298095703e-01,8.691725730895996094e-01,8.668076992034912109e-01,8.633668422698974609e-01,8.606650829315185547e-01
8.385660648345947266e-01,8.389619588851928711e-01,8.394765853881835938e-01,8.399536013603210449e-01,8.403280377388000488e-01,8.407149910926818848e-01,8.412137031555175781e-01,8.415768146514892578e-01,8.418694734573364258e-01,8.421495556831359863e-01,8.424968719482421875e-01,8.428031206130981445e-01,8.430530428886413574e-01,8.432874083518981934e-01,8.435770869255065918e-01,8.438188433647155762e-01,8.440222740173339844e-01,8.442195057868957520e-01,8.444873690605163574e-01,8.447247743606567383e-01,8.449114561080932617e-01,8.451227545738220215e-01,8.453686237335205078e-01,8.455801010131835938e-01,8.457502722740173340e-01,8.458803296089172363e-01,8.460392951965332031e-01,8.461547493934631348e-01,8.462488651275634766e-01,8.463376760482788086e-01,8.464481830596923828e-01,8.465408682823181152e-01,8.466207385063171387e-01,8.467184305191040039e-01,8.468662500381469727e-01,8.469908237457275391e-01,8.470754623413085938e-01,8.471660614013671875e-01,8.472786545753479004e-01,8.473111987113952637e-01,8.473419547080993652e-01,8.473902940750122070e-01,8.475021123886108398e-01,8.475382924079895020e-01,8.475672006607055664e-01,8.476564288139343262e-01,8.478538393974304199e-01,8.479433655738830566e-01,8.480138182640075684e-01,8.483286499977111816e-01,8.488326072692871094e-01,8.492842316627502441e-01,8.496184945106506348e-01,8.502421379089355469e-01,8.510992527008056641e-01,8.517926335334777832e-01,8.523300886154174805e-01,8.532739877700805664e-01,8.544976115226745605e-01,8.557043075561523438e-01,8.566308617591857910e-01,8.580299019813537598e-01,8.597335815429687500e-01,8.613568544387817383e-01,8.626515269279479980e-01,8.644479513168334961e-01,8.665008544921875000e-01,8.685610890388488770e-01,8.702417016029357910e-01,8.724833130836486816e-01,8.748155236244201660e-01,8.771049380302429199e-01,8.790619969367980957e-01,8.814067244529724121e-01,8.836522698402404785e-01,8.859700560569763184e-01,8.879570960998535156e-01,8.903297185897827148e-01,8.925440311431884766e-01,8.947774171829223633e-01,8.969070315361022949e-01,8.988897204399108887e-01,9.007428288459777832e-01,9.023469686508178711e-01,9.039074182510375977e-01,9.055222868919372559e-01,9.070091843605041504e-01,9.080484509468078613e-01,9.092254042625427246e-01,9.099492430686950684e-01,9.105870127677917480e-01,9.105963110923767090e-01,9.108195304870605469e-01,9.107792973518371582e-01,9.108479619026184082e-01,9.102427363395690918e-01,9.099252223968505859e-01,9.089695215225219727e-01,9.078710675239562988e-01,9.059830904006958008e-01,9.045435786247253418e-01,9.026113152503967285e-01,9.009318351745605469e-01,8.987699151039123535e-01,8.970751166343688965e-01,8.943014144897460938e-01,8.919012546539306641e-01,8.886366486549377441e-01,8.861805200576782227e-01,8.827193975448608398e-01,8.798366189002990723e-01,8.769143223762512207e-01,8.745039105415344238e-01,8.712930083274841309e-01,8.686067461967468262e-01,8.655393123626708984e-01,8.630502820014953613e-01,8.599869608879089355e-01,8.572823405265808105e-01
8.385885357856750488e-01,8.390060067176818848e-01,8.394154906272888184e-01,8.398900628089904785e-01,8.402547240257263184e-01,8.406488895416259766e-01,8.410524725914001465e-01,8.414168357849121094e-01,8.416833281517028809e-01,8.419845700263977051e-01,8.422614932060241699e-01,8.425733447074890137e-01,8.428145051002502441e-01,8.430488705635070801e-01,8.432769775390625000e-01,8.435219526290893555e-01,8.437023162841796875e-01,8.439137339591979980e-01,8.441281318664550781e-01,8.443688154220581055e-01,8.445435762405395508e-01,8.447602391242980957e-01,8.449595570564270020e-01,8.451667428016662598e-01,8.453177809715270996e-01,8.454627394676208496e-01,8.455832600593566895e-01,8.457043170928955078e-01,8.457939624786376953e-01,8.458809256553649902e-01,8.459565043449401855e-01,8.460472822189331055e-01,8.461132645606994629e-01,8.462249636650085449e-01,8.463358879089355469e-01,8.464604020118713379e-01,8.465384244918823242e-01,8.466333150863647461e-01,8.467087149620056152e-01,8.467385172843933105e-01,8.467518687248229980e-01,8.468134999275207520e-01,8.468590378761291504e-01,8.468945026397705078e-01,8.469008803367614746e-01,8.470064401626586914e-01,8.471047282218933105e-01,8.471764326095581055e-01,8.472153544425964355e-01,8.475651144981384277e-01,8.479216694831848145e-01,8.483436107635498047e-01,8.486349582672119141e-01,8.492757081985473633e-01,8.499317765235900879e-01,8.505699038505554199e-01,8.510254621505737305e-01,8.520040512084960938e-01,8.529764413833618164e-01,8.540931940078735352e-01,8.549174070358276367e-01,8.563394546508789062e-01,8.577399253845214844e-01,8.592627048492431641e-01,8.604111075401306152e-01,8.622389435768127441e-01,8.639791011810302734e-01,8.659253120422363281e-01,8.674412369728088379e-01,8.696608543395996094e-01,8.717123270034790039e-01,8.738937377929687500e-01,8.756727576255798340e-01,8.779635429382324219e-01,8.800189495086669922e-01,8.822414278984069824e-01,8.840852975845336914e-01,8.864300251007080078e-01,8.884496092796325684e-01,8.906377553939819336e-01,8.925290107727050781e-01,8.945568203926086426e-01,8.962633013725280762e-01,8.978062868118286133e-01,8.991846442222595215e-01,9.007600545883178711e-01,9.021303653717041016e-01,9.031347036361694336e-01,9.040795564651489258e-01,9.048445224761962891e-01,9.054030179977416992e-01,9.053072929382324219e-01,9.054055809974670410e-01,9.053227305412292480e-01,9.053432345390319824e-01,9.046326875686645508e-01,9.042257666587829590e-01,9.032287597656250000e-01,9.021626710891723633e-01,9.002379179000854492e-01,8.989412784576416016e-01,8.969148993492126465e-01,8.952695131301879883e-01,8.931226730346679688e-01,8.916199207305908203e-01,8.888871669769287109e-01,8.865151405334472656e-01,8.833345770835876465e-01,8.811205625534057617e-01,8.777540922164916992e-01,8.749440908432006836e-01,8.720719218254089355e-01,8.699886202812194824e-01,8.668944239616394043e-01,8.642979264259338379e-01,8.613045215606689453e-01,8.591417670249938965e-01,8.561027050018310547e-01,8.535460829734802246e-01
8.386702537536621094e-01,8.390542268753051758e-01,8.394470810890197754e-01,8.398851156234741211e-01,8.402512669563293457e-01,8.406136631965637207e-01,8.410104513168334961e-01,8.413369655609130859e-01,8.416066169738769531e-01,8.418852686882019043e-01,8.421600461006164551e-01,8.424409031867980957e-01,8.426837325096130371e-01,8.428899049758911133e-01,8.431156873703002930e-01,8.433281779289245605e-01,8.435168266296386719e-01,8.437113165855407715e-01,8.439231514930725098e-01,8.441328406333923340e-01,8.443091511726379395e-01,8.445099592208862305e-01,8.447076082229614258e-01,8.448899388313293457e-01,8.450436592102050781e-01,8.451790213584899902e-01,8.453009724617004395e-01,8.454033732414245605e-01,8.454938530921936035e-01,8.455646038055419922e-01,8.456398844718933105e-01,8.457071185111999512e-01,8.457817435264587402e-01,8.458843231201171875e-01,8.459978699684143066e-01,8.461030125617980957e-01,8.461901545524597168e-01,8.462762832641601562e-01,8.463438153266906738e-01,8.463512659072875977e-01,8.463824391365051270e-01,8.464244604110717773e-01,8.464651107788085938e-01,8.464684486389160156e-01,8.465107083320617676e-01,8.465844392776489258e-01,8.466553688049316406e-01,8.466790318489074707e-01,8.467684388160705566e-01,8.470762372016906738e-01,8.474026918411254883e-01,8.477497696876525879e-01,8.481002449989318848e-01,8.486741781234741211e-01,8.492707610130310059e-01,8.497848510742187500e-01,8.502933382987976074e-01,8.511863946914672852e-01,8.521020412445068359e-01,8.530680537223815918e-01,8.539261221885681152e-01,8.552234768867492676e-01,8.565706610679626465e-01,8.579319119453430176e-01,8.590903878211975098e-01,8.607668876647949219e-01,8.624632358551025391e-01,8.642526268959045410e-01,8.657622933387756348e-01,8.677866458892822266e-01,8.697848916053771973e-01,8.718443512916564941e-01,8.735788464546203613e-01,8.756675720214843750e-01,8.776723742485046387e-01,8.797882795333862305e-01,8.815394639968872070e-01,8.836929202079772949e-01,8.856651782989501953e-01,8.877863287925720215e-01,8.895996212959289551e-01,8.914399743080139160e-01,8.931324481964111328e-01,8.946153521537780762e-01,8.959715366363525391e-01,8.974372744560241699e-01,8.987094759941101074e-01,8.996972441673278809e-01,9.006214737892150879e-01,9.012980461120605469e-01,9.017520546913146973e-01,9.015893340110778809e-01,9.016993045806884766e-01,9.015847444534301758e-01,9.014263749122619629e-01,9.006804227828979492e-01,9.003258943557739258e-01,8.993619680404663086e-01,8.981870412826538086e-01,8.962559700012207031e-01,8.949943780899047852e-01,8.930965662002563477e-01,8.914456367492675781e-01,8.893343210220336914e-01,8.878384232521057129e-01,8.852693438529968262e-01,8.829174041748046875e-01,8.798193931579589844e-01,8.776107430458068848e-01,8.744751811027526855e-01,8.717365860939025879e-01,8.689383864402770996e-01,8.668361902236938477e-01,8.640083670616149902e-01,8.614280819892883301e-01,8.585633635520935059e-01,8.563398122787475586e-01,8.535799980163574219e-01,8.510647416114807129e-01
8.386731147766113281e-01,8.390111327171325684e-01,8.394218087196350098e-01,8.398566842079162598e-01,8.401608467102050781e-01,8.404930233955383301e-01,8.408800959587097168e-01,8.412038087844848633e-01,8.414251208305358887e-01,8.416824340820312500e-01,8.419560194015502930e-01,8.422322273254394531e-01,8.424286246299743652e-01,8.426307439804077148e-01,8.428450822830200195e-01,8.430530428886413574e-01,8.432046771049499512e-01,8.433837890625000000e-01,8.435871601104736328e-01,8.438024520874023438e-01,8.439452052116394043e-01,8.441361188888549805e-01,8.443199992179870605e-01,8.445041775703430176e-01,8.446370363235473633e-01,8.447614312171936035e-01,8.448751568794250488e-01,8.449820280075073242e-01,8.450470566749572754e-01,8.451175689697265625e-01,8.451805710792541504e-01,8.452519774436950684e-01,8.453035354614257812e-01,8.453975915908813477e-01,8.454970121383666992e-01,8.456137180328369141e-01,8.456795811653137207e-01,8.457490801811218262e-01,8.458044528961181641e-01,8.458269238471984863e-01,8.458326458930969238e-01,8.458501696586608887e-01,8.458773493766784668e-01,8.459074497222900391e-01,8.458925485610961914e-01,8.459200859069824219e-01,8.459891080856323242e-01,8.460492491722106934e-01,8.460565209388732910e-01,8.462818264961242676e-01,8.466120362281799316e-01,8.470134139060974121e-01,8.472465276718139648e-01,8.476978540420532227e-01,8.482809662818908691e-01,8.488433957099914551e-01,8.491967916488647461e-01,8.499381542205810547e-01,8.508371114730834961e-01,8.518394827842712402e-01,8.525316715240478516e-01,8.536484837532043457e-01,8.549323081970214844e-01,8.562895655632019043e-01,8.572650551795959473e-01,8.587599992752075195e-01,8.603655695915222168e-01,8.621515035629272461e-01,8.634957075119018555e-01,8.653255701065063477e-01,8.672067523002624512e-01,8.691818714141845703e-01,8.707573413848876953e-01,8.726910352706909180e-01,8.745722174644470215e-01,8.766099810600280762e-01,8.782595396041870117e-01,8.802971839904785156e-01,8.821489214897155762e-01,8.841579556465148926e-01,8.859126567840576172e-01,8.876907229423522949e-01,8.892298936843872070e-01,8.906801342964172363e-01,8.919692635536193848e-01,8.933635950088500977e-01,8.944975733757019043e-01,8.954466581344604492e-01,8.963127732276916504e-01,8.969050049781799316e-01,8.973035216331481934e-01,8.971754908561706543e-01,8.971849083900451660e-01,8.969284892082214355e-01,8.967490196228027344e-01,8.960734605789184570e-01,8.956024050712585449e-01,8.945012688636779785e-01,8.933979272842407227e-01,8.915513157844543457e-01,8.901908993721008301e-01,8.882851600646972656e-01,8.866934776306152344e-01,8.846400380134582520e-01,8.831383585929870605e-01,8.806431889533996582e-01,8.784353733062744141e-01,8.754147887229919434e-01,8.732962012290954590e-01,8.703146576881408691e-01,8.677194118499755859e-01,8.650047779083251953e-01,8.630357384681701660e-01,8.603165149688720703e-01,8.579602241516113281e-01,8.551042079925537109e-01,8.530735969543457031e-01,8.504036068916320801e-01,8.480427861213684082e-01
8.388071060180664062e-01,8.391400575637817383e-01,8.395556211471557617e-01,8.399338722229003906e-01,8.402246236801147461e-01,8.405429124832153320e-01,8.409470915794372559e-01,8.412197232246398926e-01,8.414275646209716797e-01,8.416625857353210449e-01,8.419528007507324219e-01,8.421792984008789062e-01,8.423698544502258301e-01,8.425570726394653320e-01,8.427893519401550293e-01,8.429620862007141113e-01,8.431058526039123535e-01,8.432653546333312988e-01,8.434813618659973145e-01,8.436637520790100098e-01,8.438009023666381836e-01,8.439789414405822754e-01,8.441764116287231445e-01,8.443379998207092285e-01,8.444597125053405762e-01,8.445645570755004883e-01,8.446896076202392578e-01,8.447697162628173828e-01,8.448320031166076660e-01,8.448913693428039551e-01,8.449655771255493164e-01,8.450146317481994629e-01,8.450587391853332520e-01,8.451380729675292969e-01,8.452521562576293945e-01,8.453510403633117676e-01,8.454142212867736816e-01,8.454705476760864258e-01,8.455346226692199707e-01,8.455354571342468262e-01,8.455362915992736816e-01,8.455361127853393555e-01,8.455719351768493652e-01,8.455663323402404785e-01,8.455610275268554688e-01,8.455731272697448730e-01,8.456462621688842773e-01,8.456605672836303711e-01,8.456814885139465332e-01,8.458773493766784668e-01,8.462162017822265625e-01,8.465450406074523926e-01,8.467893004417419434e-01,8.472018241882324219e-01,8.477871417999267578e-01,8.482600450515747070e-01,8.486104607582092285e-01,8.492869734764099121e-01,8.502032160758972168e-01,8.510743379592895508e-01,8.517278432846069336e-01,8.527447581291198730e-01,8.540594577789306641e-01,8.552653193473815918e-01,8.561998605728149414e-01,8.575547337532043457e-01,8.592119216918945312e-01,8.608053326606750488e-01,8.620777726173400879e-01,8.637421727180480957e-01,8.656765222549438477e-01,8.674785494804382324e-01,8.690170049667358398e-01,8.707768321037292480e-01,8.726655244827270508e-01,8.745226263999938965e-01,8.761248588562011719e-01,8.780137300491333008e-01,8.798670172691345215e-01,8.817502856254577637e-01,8.834611177444458008e-01,8.850696682929992676e-01,8.865985274314880371e-01,8.879401087760925293e-01,8.892158269882202148e-01,8.905019164085388184e-01,8.915980458259582520e-01,8.924823999404907227e-01,8.933918476104736328e-01,8.938471674919128418e-01,8.941789865493774414e-01,8.939619064331054688e-01,8.939655423164367676e-01,8.936303257942199707e-01,8.934003710746765137e-01,8.927102684974670410e-01,8.922233581542968750e-01,8.910623788833618164e-01,8.899241089820861816e-01,8.881201148033142090e-01,8.867298364639282227e-01,8.848768472671508789e-01,8.832977414131164551e-01,8.813397884368896484e-01,8.797647356986999512e-01,8.773806095123291016e-01,8.751919269561767578e-01,8.723190426826477051e-01,8.701047897338867188e-01,8.673062920570373535e-01,8.647883534431457520e-01,8.622789382934570312e-01,8.602004051208496094e-01,8.577252030372619629e-01,8.553519845008850098e-01,8.527006506919860840e-01,8.505416512489318848e-01,8.481219410896301270e-01,8.457744121551513672e-01
8.390820622444152832e-01,8.394035696983337402e-01,8.397417068481445312e-01,8.401219844818115234e-01,8.404059410095214844e-01,8.407245874404907227e-01,8.410555124282836914e-01,8.413240313529968262e-01,8.415201902389526367e-01,8.417614102363586426e-01,8.419886231422424316e-01,8.422276973724365234e-01,8.424074053764343262e-01,8.425977230072021484e-01,8.427791595458984375e-01,8.429531455039978027e-01,8.430836200714111328e-01,8.432527780532836914e-01,8.434242606163024902e-01,8.436090350151062012e-01,8.437384366989135742e-01,8.439197540283203125e-01,8.440758585929870605e-01,8.442299962043762207e-01,8.443393111228942871e-01,8.444541096687316895e-01,8.445433974266052246e-01,8.446275591850280762e-01,8.446832895278930664e-01,8.447448015213012695e-01,8.447858095169067383e-01,8.448357582092285156e-01,8.448714613914489746e-01,8.449603915214538574e-01,8.450426459312438965e-01,8.451355695724487305e-01,8.451904058456420898e-01,8.452518582344055176e-01,8.452807068824768066e-01,8.452836871147155762e-01,8.452779054641723633e-01,8.452872633934020996e-01,8.452789783477783203e-01,8.452769517898559570e-01,8.452670574188232422e-01,8.452856540679931641e-01,8.452949523925781250e-01,8.453089594841003418e-01,8.453184366226196289e-01,8.455339074134826660e-01,8.457801342010498047e-01,8.461020588874816895e-01,8.463231921195983887e-01,8.467581868171691895e-01,8.472200036048889160e-01,8.476511240005493164e-01,8.479650616645812988e-01,8.486601114273071289e-01,8.493875861167907715e-01,8.502057790756225586e-01,8.507918715476989746e-01,8.518416881561279297e-01,8.529074788093566895e-01,8.540267944335937500e-01,8.548556566238403320e-01,8.562384247779846191e-01,8.576005101203918457e-01,8.591358065605163574e-01,8.602696657180786133e-01,8.619709014892578125e-01,8.636032342910766602e-01,8.653292059898376465e-01,8.666951656341552734e-01,8.684749007225036621e-01,8.701373934745788574e-01,8.719568848609924316e-01,8.734036684036254883e-01,8.753103017807006836e-01,8.769932389259338379e-01,8.788164258003234863e-01,8.803360462188720703e-01,8.819972276687622070e-01,8.834028840065002441e-01,8.847747445106506348e-01,8.859331011772155762e-01,8.872248530387878418e-01,8.882093429565429688e-01,8.890979290008544922e-01,8.898595571517944336e-01,8.903051018714904785e-01,8.905285596847534180e-01,8.903736472129821777e-01,8.902987241744995117e-01,8.899503350257873535e-01,8.896443843841552734e-01,8.889242410659790039e-01,8.884003758430480957e-01,8.872451186180114746e-01,8.860949873924255371e-01,8.842799067497253418e-01,8.829710483551025391e-01,8.811290860176086426e-01,8.795546293258666992e-01,8.775945901870727539e-01,8.761333823204040527e-01,8.737780451774597168e-01,8.716688752174377441e-01,8.687885403633117676e-01,8.667874932289123535e-01,8.640295267105102539e-01,8.616341948509216309e-01,8.591148853302001953e-01,8.572453856468200684e-01,8.547837138175964355e-01,8.525584936141967773e-01,8.498960137367248535e-01,8.479499816894531250e-01,8.455050587654113770e-01,8.432800173759460449e-01
8.393615484237670898e-01,8.396536707878112793e-01,8.399858474731445312e-01,8.403298854827880859e-01,8.406221270561218262e-01,8.409134745597839355e-01,8.412373065948486328e-01,8.414750695228576660e-01,8.416712284088134766e-01,8.418895602226257324e-01,8.421172499656677246e-01,8.423337340354919434e-01,8.425139188766479492e-01,8.426825404167175293e-01,8.428620100021362305e-01,8.430126309394836426e-01,8.431448340415954590e-01,8.432964682579040527e-01,8.434646725654602051e-01,8.436290025711059570e-01,8.437621593475341797e-01,8.439255952835083008e-01,8.440777063369750977e-01,8.442111015319824219e-01,8.443239927291870117e-01,8.444244861602783203e-01,8.445118665695190430e-01,8.445824980735778809e-01,8.446408510208129883e-01,8.446863293647766113e-01,8.447256684303283691e-01,8.447585105895996094e-01,8.447987437248229980e-01,8.448770642280578613e-01,8.449544310569763184e-01,8.450338840484619141e-01,8.450965881347656250e-01,8.451454639434814453e-01,8.451702594757080078e-01,8.451588153839111328e-01,8.451599478721618652e-01,8.451589941978454590e-01,8.451451063156127930e-01,8.451277017593383789e-01,8.451259732246398926e-01,8.451267480850219727e-01,8.451287746429443359e-01,8.451126813888549805e-01,8.451404571533203125e-01,8.453353047370910645e-01,8.455719351768493652e-01,8.458432555198669434e-01,8.460966348648071289e-01,8.464972972869873047e-01,8.469305038452148438e-01,8.472819924354553223e-01,8.476389646530151367e-01,8.482679128646850586e-01,8.489649891853332520e-01,8.496590256690979004e-01,8.502917885780334473e-01,8.512514233589172363e-01,8.522704243659973145e-01,8.532304763793945312e-01,8.540779948234558105e-01,8.553295135498046875e-01,8.566793203353881836e-01,8.580545186996459961e-01,8.591921329498291016e-01,8.607519865036010742e-01,8.623778223991394043e-01,8.639556169509887695e-01,8.652794957160949707e-01,8.669080734252929688e-01,8.685761094093322754e-01,8.702747821807861328e-01,8.716729879379272461e-01,8.734380006790161133e-01,8.751296997070312500e-01,8.768810629844665527e-01,8.783537745475769043e-01,8.798799514770507812e-01,8.812852501869201660e-01,8.825984001159667969e-01,8.837353587150573730e-01,8.849196434020996094e-01,8.858984708786010742e-01,8.867275118827819824e-01,8.875032663345336914e-01,8.878610730171203613e-01,8.880691528320312500e-01,8.878614306449890137e-01,8.878301382064819336e-01,8.874661922454833984e-01,8.870899081230163574e-01,8.863490819931030273e-01,8.858823776245117188e-01,8.847500681877136230e-01,8.835020661354064941e-01,8.817030191421508789e-01,8.804352283477783203e-01,8.786827921867370605e-01,8.770217895507812500e-01,8.751019835472106934e-01,8.736697435379028320e-01,8.714845776557922363e-01,8.692654371261596680e-01,8.664920330047607422e-01,8.644675612449645996e-01,8.619129061698913574e-01,8.595137000083923340e-01,8.570661544799804688e-01,8.551583886146545410e-01,8.529070019721984863e-01,8.506389260292053223e-01,8.480994701385498047e-01,8.460909724235534668e-01,8.438489437103271484e-01,8.416274785995483398e-01
8.397364616394042969e-01,8.400079011917114258e-01,8.403352499008178711e-01,8.406760692596435547e-01,8.409207463264465332e-01,8.411824703216552734e-01,8.414984941482543945e-01,8.417347073554992676e-01,8.418927788734436035e-01,8.420979976654052734e-01,8.423143625259399414e-01,8.425230979919433594e-01,8.426694869995117188e-01,8.428295850753784180e-01,8.430013656616210938e-01,8.431452512741088867e-01,8.432477712631225586e-01,8.433901667594909668e-01,8.435486555099487305e-01,8.437106013298034668e-01,8.438162207603454590e-01,8.439642786979675293e-01,8.441087007522583008e-01,8.442453742027282715e-01,8.443353772163391113e-01,8.444223999977111816e-01,8.445026874542236328e-01,8.445757627487182617e-01,8.446102142333984375e-01,8.446480035781860352e-01,8.446830511093139648e-01,8.447195887565612793e-01,8.447353243827819824e-01,8.448050022125244141e-01,8.448812365531921387e-01,8.449617028236389160e-01,8.450037837028503418e-01,8.450334072113037109e-01,8.450568318367004395e-01,8.450537919998168945e-01,8.450313210487365723e-01,8.450198173522949219e-01,8.450067639350891113e-01,8.449922204017639160e-01,8.449622988700866699e-01,8.449414968490600586e-01,8.449414968490600586e-01,8.449380993843078613e-01,8.449279665946960449e-01,8.450907468795776367e-01,8.453139066696166992e-01,8.456167578697204590e-01,8.458119630813598633e-01,8.461391925811767578e-01,8.465480208396911621e-01,8.469434380531311035e-01,8.472029566764831543e-01,8.477376103401184082e-01,8.483912944793701172e-01,8.491424918174743652e-01,8.496377468109130859e-01,8.504579663276672363e-01,8.514106869697570801e-01,8.523975610733032227e-01,8.530923128128051758e-01,8.542215824127197266e-01,8.554592728614807129e-01,8.568416833877563477e-01,8.578348159790039062e-01,8.592702746391296387e-01,8.607547879219055176e-01,8.622813820838928223e-01,8.634746670722961426e-01,8.650414347648620605e-01,8.665499091148376465e-01,8.682116270065307617e-01,8.695126771926879883e-01,8.712250590324401855e-01,8.727620244026184082e-01,8.744499683380126953e-01,8.758596777915954590e-01,8.773565888404846191e-01,8.786638975143432617e-01,8.799819946289062500e-01,8.810535669326782227e-01,8.822125196456909180e-01,8.831313848495483398e-01,8.839176893234252930e-01,8.846708536148071289e-01,8.849678635597229004e-01,8.851350545883178711e-01,8.849664926528930664e-01,8.848893642425537109e-01,8.844754099845886230e-01,8.841256499290466309e-01,8.833813667297363281e-01,8.828730583190917969e-01,8.816475868225097656e-01,8.804987668991088867e-01,8.787501454353332520e-01,8.774694800376892090e-01,8.756514787673950195e-01,8.741068243980407715e-01,8.722319602966308594e-01,8.707959055900573730e-01,8.685526251792907715e-01,8.665205836296081543e-01,8.637811541557312012e-01,8.618010878562927246e-01,8.593087196350097656e-01,8.570218682289123535e-01,8.545986413955688477e-01,8.527907133102416992e-01,8.505540490150451660e-01,8.484295606613159180e-01,8.458547592163085938e-01,8.439297676086425781e-01,8.417813777923583984e-01,8.396758437156677246e-01
8.400498032569885254e-01,8.403103947639465332e-01,8.406482934951782227e-01,8.409460783004760742e-01,8.411849141120910645e-01,8.414256572723388672e-01,8.417524695396423340e-01,8.419382572174072266e-01,8.420887589454650879e-01,8.422710895538330078e-01,8.425046205520629883e-01,8.426774740219116211e-01,8.428239822387695312e-01,8.429665565490722656e-01,8.431493043899536133e-01,8.432620167732238770e-01,8.433611989021301270e-01,8.434877395629882812e-01,8.436588644981384277e-01,8.437961339950561523e-01,8.438997268676757812e-01,8.440331220626831055e-01,8.441880345344543457e-01,8.442968726158142090e-01,8.443806171417236328e-01,8.444504141807556152e-01,8.445405960083007812e-01,8.445898890495300293e-01,8.446250557899475098e-01,8.446536064147949219e-01,8.446940779685974121e-01,8.447082042694091797e-01,8.447241783142089844e-01,8.447848558425903320e-01,8.448716402053833008e-01,8.449340462684631348e-01,8.449727296829223633e-01,8.449907898902893066e-01,8.450164794921875000e-01,8.449872136116027832e-01,8.449697494506835938e-01,8.449494838714599609e-01,8.449440598487854004e-01,8.449094891548156738e-01,8.448846340179443359e-01,8.448545932769775391e-01,8.448539972305297852e-01,8.448185324668884277e-01,8.448058962821960449e-01,8.449547886848449707e-01,8.451998829841613770e-01,8.454747796058654785e-01,8.456640839576721191e-01,8.459616899490356445e-01,8.463820219039916992e-01,8.467068076133728027e-01,8.469504714012145996e-01,8.474296927452087402e-01,8.481143116950988770e-01,8.487603068351745605e-01,8.492366075515747070e-01,8.499630093574523926e-01,8.509429097175598145e-01,8.517823219299316406e-01,8.524261116981506348e-01,8.534262180328369141e-01,8.547264933586120605e-01,8.559445738792419434e-01,8.568954467773437500e-01,8.581615686416625977e-01,8.597074151039123535e-01,8.610804677009582520e-01,8.622163534164428711e-01,8.636090755462646484e-01,8.651881217956542969e-01,8.667382001876831055e-01,8.679848313331604004e-01,8.695313334465026855e-01,8.711168766021728516e-01,8.727075457572937012e-01,8.740752935409545898e-01,8.754125833511352539e-01,8.767485022544860840e-01,8.779572844505310059e-01,8.790380954742431641e-01,8.801017403602600098e-01,8.810352683067321777e-01,8.817482590675354004e-01,8.824870586395263672e-01,8.827175498008728027e-01,8.828808665275573730e-01,8.826395273208618164e-01,8.825833797454833984e-01,8.821895122528076172e-01,8.818290829658508301e-01,8.810755014419555664e-01,8.805590867996215820e-01,8.793612122535705566e-01,8.781855106353759766e-01,8.764633536338806152e-01,8.751482367515563965e-01,8.734281063079833984e-01,8.718776106834411621e-01,8.700786828994750977e-01,8.686060309410095215e-01,8.664919137954711914e-01,8.644093871116638184e-01,8.617812395095825195e-01,8.597304821014404297e-01,8.574061393737792969e-01,8.551357388496398926e-01,8.528528809547424316e-01,8.509411811828613281e-01,8.488802313804626465e-01,8.467055559158325195e-01,8.442629575729370117e-01,8.422521352767944336e-01,8.402822017669677734e-01,8.381497859954833984e-01
8.405141830444335938e-01,8.407804965972900391e-01,8.410604000091552734e-01,8.413516879081726074e-01,8.415874838829040527e-01,8.418337106704711914e-01,8.420979976654052734e-01,8.422883152961730957e-01,8.424346446990966797e-01,8.426263928413391113e-01,8.428073525428771973e-01,8.429906368255615234e-01,8.431395888328552246e-01,8.432806134223937988e-01,8.434205055236816406e-01,8.435426950454711914e-01,8.436385989189147949e-01,8.437675833702087402e-01,8.439019322395324707e-01,8.440436720848083496e-01,8.441467881202697754e-01,8.442804813385009766e-01,8.443958163261413574e-01,8.445025682449340820e-01,8.445796966552734375e-01,8.446605801582336426e-01,8.447167873382568359e-01,8.447697162628173828e-01,8.448073863983154297e-01,8.448358178138732910e-01,8.448494076728820801e-01,8.448709845542907715e-01,8.448864221572875977e-01,8.449488282203674316e-01,8.450067639350891113e-01,8.450652956962585449e-01,8.451013565063476562e-01,8.451285362243652344e-01,8.451263904571533203e-01,8.451015353202819824e-01,8.450849056243896484e-01,8.450713753700256348e-01,8.450402617454528809e-01,8.450078964233398438e-01,8.449805974960327148e-01,8.449563384056091309e-01,8.449268937110900879e-01,8.448920845985412598e-01,8.448830246925354004e-01,8.450470566749572754e-01,8.452383875846862793e-01,8.454882502555847168e-01,8.456646800041198730e-01,8.459734916687011719e-01,8.463076949119567871e-01,8.466125726699829102e-01,8.468351364135742188e-01,8.473365306854248047e-01,8.478815555572509766e-01,8.484873175621032715e-01,8.489139080047607422e-01,8.496655821800231934e-01,8.504576683044433594e-01,8.512302041053771973e-01,8.518120646476745605e-01,8.528544306755065918e-01,8.539168834686279297e-01,8.550754189491271973e-01,8.559408187866210938e-01,8.572275638580322266e-01,8.585222363471984863e-01,8.598424792289733887e-01,8.608660697937011719e-01,8.622860908508300781e-01,8.636574149131774902e-01,8.651624917984008789e-01,8.663301467895507812e-01,8.678669333457946777e-01,8.692843914031982422e-01,8.708302974700927734e-01,8.720700740814208984e-01,8.734201192855834961e-01,8.746435046195983887e-01,8.758807778358459473e-01,8.768813014030456543e-01,8.779276013374328613e-01,8.787729740142822266e-01,8.794867396354675293e-01,8.800891041755676270e-01,8.803555965423583984e-01,8.804745078086853027e-01,8.802928328514099121e-01,8.802111744880676270e-01,8.798032999038696289e-01,8.794050812721252441e-01,8.786774277687072754e-01,8.781141042709350586e-01,8.769398331642150879e-01,8.757566809654235840e-01,8.740610480308532715e-01,8.728215098381042480e-01,8.711279034614562988e-01,8.695776462554931641e-01,8.677728176116943359e-01,8.663809299468994141e-01,8.643128871917724609e-01,8.622706532478332520e-01,8.596363067626953125e-01,8.577207326889038086e-01,8.554157614707946777e-01,8.531796336174011230e-01,8.509106040000915527e-01,8.491160273551940918e-01,8.470559120178222656e-01,8.449527621269226074e-01,8.424963355064392090e-01,8.406137228012084961e-01,8.386158347129821777e-01,8.365533947944641113e-01
8.409608602523803711e-01,8.412062525749206543e-01,8.414683341979980469e-01,8.417431116104125977e-01,8.419906497001647949e-01,8.422144055366516113e-01,8.424620032310485840e-01,8.426360487937927246e-01,8.427892327308654785e-01,8.429641723632812500e-01,8.431348204612731934e-01,8.433102965354919434e-01,8.434598445892333984e-01,8.435859084129333496e-01,8.437169194221496582e-01,8.438290953636169434e-01,8.439294695854187012e-01,8.440479040145874023e-01,8.441730141639709473e-01,8.443027734756469727e-01,8.444094061851501465e-01,8.445298671722412109e-01,8.446378707885742188e-01,8.447312712669372559e-01,8.448135852813720703e-01,8.448852300643920898e-01,8.449363112449645996e-01,8.449833989143371582e-01,8.450232148170471191e-01,8.450418710708618164e-01,8.450496792793273926e-01,8.450655937194824219e-01,8.450865745544433594e-01,8.451391458511352539e-01,8.451925516128540039e-01,8.452449440956115723e-01,8.452864885330200195e-01,8.453075289726257324e-01,8.452979922294616699e-01,8.452703356742858887e-01,8.452591300010681152e-01,8.452398180961608887e-01,8.452036380767822266e-01,8.451679348945617676e-01,8.451551795005798340e-01,8.451241850852966309e-01,8.450785279273986816e-01,8.450297117233276367e-01,8.450357913970947266e-01,8.451929688453674316e-01,8.453699946403503418e-01,8.455953001976013184e-01,8.458042740821838379e-01,8.460865616798400879e-01,8.463931083679199219e-01,8.466380238533020020e-01,8.469050526618957520e-01,8.473646044731140137e-01,8.478763699531555176e-01,8.483912944793701172e-01,8.488777875900268555e-01,8.495630025863647461e-01,8.502947092056274414e-01,8.509464263916015625e-01,8.515793681144714355e-01,8.525429368019104004e-01,8.535503149032592773e-01,8.545847535133361816e-01,8.554871678352355957e-01,8.566821813583374023e-01,8.579118251800537109e-01,8.591005802154541016e-01,8.601283431053161621e-01,8.614590167999267578e-01,8.628005981445312500e-01,8.641961812973022461e-01,8.653373718261718750e-01,8.667625784873962402e-01,8.681589961051940918e-01,8.696275353431701660e-01,8.708499073982238770e-01,8.721066117286682129e-01,8.733275532722473145e-01,8.745012879371643066e-01,8.754774928092956543e-01,8.764346241950988770e-01,8.772786855697631836e-01,8.779776692390441895e-01,8.785932660102844238e-01,8.788288831710815430e-01,8.789240717887878418e-01,8.787521719932556152e-01,8.786742091178894043e-01,8.782532811164855957e-01,8.778287768363952637e-01,8.771232962608337402e-01,8.766022324562072754e-01,8.754488825798034668e-01,8.742399811744689941e-01,8.725634813308715820e-01,8.713556528091430664e-01,8.697251677513122559e-01,8.681565523147583008e-01,8.663492798805236816e-01,8.649730682373046875e-01,8.629999160766601562e-01,8.609123826026916504e-01,8.583004474639892578e-01,8.563829064369201660e-01,8.541923761367797852e-01,8.519731760025024414e-01,8.497061133384704590e-01,8.479208350181579590e-01,8.459970355033874512e-01,8.438472747802734375e-01,8.414112925529479980e-01,8.394600152969360352e-01,8.375847339630126953e-01,8.355526924133300781e-01
8.414254784584045410e-01,8.416370153427124023e-01,8.419185876846313477e-01,8.421960473060607910e-01,8.423978686332702637e-01,8.425887227058410645e-01,8.428486585617065430e-01,8.430265188217163086e-01,8.431392908096313477e-01,8.432950377464294434e-01,8.434869647026062012e-01,8.436516523361206055e-01,8.437696695327758789e-01,8.438850641250610352e-01,8.440279960632324219e-01,8.441315293312072754e-01,8.442053198814392090e-01,8.443089723587036133e-01,8.444485068321228027e-01,8.445718884468078613e-01,8.446530699729919434e-01,8.447595238685607910e-01,8.448746204376220703e-01,8.449669480323791504e-01,8.450280427932739258e-01,8.450840711593627930e-01,8.451464176177978516e-01,8.451899886131286621e-01,8.452098369598388672e-01,8.452234864234924316e-01,8.452411293983459473e-01,8.452558517456054688e-01,8.452600836753845215e-01,8.452994227409362793e-01,8.453612923622131348e-01,8.454129099845886230e-01,8.454333543777465820e-01,8.454442620277404785e-01,8.454466462135314941e-01,8.454223871231079102e-01,8.453950881958007812e-01,8.453676104545593262e-01,8.453463912010192871e-01,8.453174829483032227e-01,8.452780842781066895e-01,8.452286720275878906e-01,8.452008366584777832e-01,8.451722860336303711e-01,8.451421260833740234e-01,8.452731370925903320e-01,8.454661965370178223e-01,8.457110524177551270e-01,8.458738327026367188e-01,8.460869193077087402e-01,8.463975191116333008e-01,8.466839194297790527e-01,8.468624353408813477e-01,8.472508788108825684e-01,8.477641940116882324e-01,8.483247756958007812e-01,8.486987352371215820e-01,8.492461442947387695e-01,8.499630093574523926e-01,8.506608009338378906e-01,8.511386513710021973e-01,8.519639968872070312e-01,8.529714941978454590e-01,8.540292382240295410e-01,8.547876477241516113e-01,8.558200001716613770e-01,8.570143580436706543e-01,8.581948876380920410e-01,8.590748906135559082e-01,8.602890372276306152e-01,8.615963459014892578e-01,8.629646897315979004e-01,8.639993667602539062e-01,8.653391599655151367e-01,8.666686415672302246e-01,8.680610060691833496e-01,8.692094087600708008e-01,8.704115748405456543e-01,8.715695142745971680e-01,8.727405667304992676e-01,8.736646175384521484e-01,8.746121525764465332e-01,8.753913044929504395e-01,8.760376572608947754e-01,8.766366243362426758e-01,8.768568634986877441e-01,8.769426345825195312e-01,8.768000006675720215e-01,8.766945600509643555e-01,8.763137459754943848e-01,8.758975863456726074e-01,8.751769065856933594e-01,8.746440410614013672e-01,8.734913468360900879e-01,8.723258972167968750e-01,8.706901073455810547e-01,8.694112300872802734e-01,8.678205013275146484e-01,8.662969470024108887e-01,8.645583391189575195e-01,8.631615638732910156e-01,8.611781597137451172e-01,8.591659665107727051e-01,8.566302061080932617e-01,8.546968698501586914e-01,8.525458574295043945e-01,8.503705859184265137e-01,8.481739163398742676e-01,8.463912010192871094e-01,8.444442749023437500e-01,8.423661589622497559e-01,8.399352431297302246e-01,8.380231857299804688e-01,8.362419605255126953e-01,8.342365622520446777e-01
8.418954014778137207e-01,8.421043157577514648e-01,8.423783779144287109e-01,8.426281213760375977e-01,8.428355455398559570e-01,8.430190086364746094e-01,8.432675600051879883e-01,8.434122800827026367e-01,8.435314297676086426e-01,8.436833620071411133e-01,8.438733816146850586e-01,8.440114855766296387e-01,8.441343903541564941e-01,8.442509770393371582e-01,8.443927764892578125e-01,8.444771766662597656e-01,8.445555567741394043e-01,8.446600437164306641e-01,8.447948098182678223e-01,8.448983430862426758e-01,8.449825048446655273e-01,8.450901508331298828e-01,8.452054262161254883e-01,8.452783823013305664e-01,8.453382849693298340e-01,8.453913927078247070e-01,8.454548120498657227e-01,8.454796075820922852e-01,8.455019593238830566e-01,8.455188274383544922e-01,8.455389738082885742e-01,8.455422520637512207e-01,8.455492854118347168e-01,8.455902338027954102e-01,8.456484675407409668e-01,8.456835150718688965e-01,8.457089066505432129e-01,8.457201123237609863e-01,8.457245230674743652e-01,8.456933498382568359e-01,8.456688523292541504e-01,8.456454277038574219e-01,8.456224799156188965e-01,8.455848693847656250e-01,8.455530405044555664e-01,8.455100655555725098e-01,8.454771041870117188e-01,8.454404473304748535e-01,8.454170227050781250e-01,8.455511331558227539e-01,8.457466959953308105e-01,8.459689021110534668e-01,8.461266756057739258e-01,8.463231921195983887e-01,8.466262221336364746e-01,8.468521833419799805e-01,8.470389842987060547e-01,8.474063277244567871e-01,8.479337096214294434e-01,8.484229445457458496e-01,8.487846255302429199e-01,8.492929339408874512e-01,8.500121235847473145e-01,8.506068587303161621e-01,8.510668277740478516e-01,8.518416881561279297e-01,8.528755903244018555e-01,8.538159132003784180e-01,8.545336127281188965e-01,8.554920554161071777e-01,8.567109107971191406e-01,8.577780723571777344e-01,8.586211800575256348e-01,8.597497344017028809e-01,8.610765933990478516e-01,8.623135685920715332e-01,8.632857203483581543e-01,8.645428419113159180e-01,8.659200072288513184e-01,8.672220110893249512e-01,8.683228492736816406e-01,8.694144487380981445e-01,8.705890774726867676e-01,8.716695904731750488e-01,8.725612759590148926e-01,8.734534978866577148e-01,8.742605447769165039e-01,8.748726844787597656e-01,8.754730820655822754e-01,8.756206035614013672e-01,8.756853938102722168e-01,8.754996061325073242e-01,8.754286766052246094e-01,8.750780820846557617e-01,8.746535181999206543e-01,8.739283084869384766e-01,8.734151721000671387e-01,8.722633123397827148e-01,8.710599541664123535e-01,8.694326877593994141e-01,8.682047128677368164e-01,8.666710853576660156e-01,8.651344180107116699e-01,8.634390830993652344e-01,8.620440363883972168e-01,8.601127266883850098e-01,8.580828905105590820e-01,8.555900454521179199e-01,8.536053895950317383e-01,8.515290021896362305e-01,8.493854403495788574e-01,8.472213745117187500e-01,8.454121351242065430e-01,8.435430526733398438e-01,8.414630293846130371e-01,8.390732407569885254e-01,8.371122479438781738e-01,8.354323506355285645e-01,8.334260582923889160e-01
8.426015377044677734e-01,8.428023457527160645e-01,8.430329561233520508e-01,8.432877063751220703e-01,8.434948921203613281e-01,8.436846733093261719e-01,8.438965082168579102e-01,8.440495133399963379e-01,8.441778421401977539e-01,8.443249464035034180e-01,8.444829583168029785e-01,8.446366786956787109e-01,8.447718620300292969e-01,8.448842167854309082e-01,8.450043797492980957e-01,8.450983166694641113e-01,8.451876044273376465e-01,8.452856540679931641e-01,8.454027771949768066e-01,8.455152511596679688e-01,8.456070423126220703e-01,8.457086682319641113e-01,8.458052873611450195e-01,8.458806872367858887e-01,8.459436893463134766e-01,8.459985852241516113e-01,8.460456132888793945e-01,8.460800647735595703e-01,8.461121320724487305e-01,8.461268544197082520e-01,8.461361527442932129e-01,8.461450338363647461e-01,8.461594581604003906e-01,8.461990356445312500e-01,8.462449908256530762e-01,8.462859392166137695e-01,8.463177084922790527e-01,8.463295102119445801e-01,8.463239669799804688e-01,8.462970256805419922e-01,8.462861776351928711e-01,8.462647795677185059e-01,8.462342023849487305e-01,8.461993932723999023e-01,8.461838364601135254e-01,8.461435437202453613e-01,8.461048007011413574e-01,8.460623025894165039e-01,8.460550308227539062e-01,8.461924791336059570e-01,8.463576436042785645e-01,8.465568423271179199e-01,8.467070460319519043e-01,8.469260931015014648e-01,8.471762537956237793e-01,8.473908305168151855e-01,8.475766777992248535e-01,8.479611277580261230e-01,8.483933210372924805e-01,8.488527536392211914e-01,8.491936326026916504e-01,8.497264385223388672e-01,8.503107428550720215e-01,8.508701324462890625e-01,8.513069748878479004e-01,8.520907759666442871e-01,8.529420495033264160e-01,8.538406491279602051e-01,8.545074462890625000e-01,8.554919958114624023e-01,8.565111756324768066e-01,8.575208187103271484e-01,8.582891821861267090e-01,8.594288825988769531e-01,8.605770468711853027e-01,8.617806434631347656e-01,8.626777529716491699e-01,8.639446496963500977e-01,8.651432394981384277e-01,8.663923144340515137e-01,8.673784732818603516e-01,8.685042262077331543e-01,8.695757985115051270e-01,8.706759810447692871e-01,8.715269565582275391e-01,8.724213838577270508e-01,8.731493949890136719e-01,8.737521767616271973e-01,8.742671608924865723e-01,8.744530677795410156e-01,8.745039105415344238e-01,8.744059205055236816e-01,8.743678331375122070e-01,8.739748597145080566e-01,8.735482692718505859e-01,8.728715181350708008e-01,8.723481297492980957e-01,8.712088465690612793e-01,8.700242042541503906e-01,8.684743046760559082e-01,8.673070073127746582e-01,8.657774925231933594e-01,8.642702698707580566e-01,8.625619411468505859e-01,8.612021207809448242e-01,8.593238592147827148e-01,8.572911620140075684e-01,8.547965884208679199e-01,8.529052734375000000e-01,8.508807420730590820e-01,8.487036228179931641e-01,8.465129137039184570e-01,8.447530269622802734e-01,8.429332375526428223e-01,8.408116698265075684e-01,8.384175300598144531e-01,8.365047574043273926e-01,8.348310589790344238e-01,8.328359723091125488e-01
8.432261943817138672e-01,8.434116244316101074e-01,8.436357975006103516e-01,8.438761830329895020e-01,8.440928459167480469e-01,8.442716598510742188e-01,8.444741964340209961e-01,8.446250557899475098e-01,8.447579145431518555e-01,8.448933362960815430e-01,8.450468778610229492e-01,8.452052474021911621e-01,8.453408479690551758e-01,8.454485535621643066e-01,8.455626368522644043e-01,8.456600904464721680e-01,8.457506299018859863e-01,8.458440899848937988e-01,8.459531068801879883e-01,8.460676074028015137e-01,8.461616635322570801e-01,8.462581038475036621e-01,8.463486433029174805e-01,8.464276194572448730e-01,8.464922904968261719e-01,8.465440273284912109e-01,8.465854525566101074e-01,8.466282486915588379e-01,8.466583490371704102e-01,8.466703295707702637e-01,8.466771245002746582e-01,8.466926813125610352e-01,8.467083573341369629e-01,8.467450737953186035e-01,8.467853665351867676e-01,8.468318581581115723e-01,8.468621373176574707e-01,8.468737602233886719e-01,8.468674421310424805e-01,8.468523025512695312e-01,8.468381166458129883e-01,8.468168973922729492e-01,8.467879891395568848e-01,8.467630743980407715e-01,8.467463850975036621e-01,8.467068672180175781e-01,8.466643095016479492e-01,8.466222286224365234e-01,8.466254472732543945e-01,8.467566370964050293e-01,8.469141721725463867e-01,8.470923304557800293e-01,8.472650647163391113e-01,8.474789857864379883e-01,8.477057814598083496e-01,8.478887081146240234e-01,8.480979204177856445e-01,8.484618067741394043e-01,8.488742709159851074e-01,8.492805957794189453e-01,8.496584296226501465e-01,8.501562476158142090e-01,8.507006168365478516e-01,8.511750102043151855e-01,8.516447544097900391e-01,8.523676991462707520e-01,8.531942963600158691e-01,8.539851307868957520e-01,8.546856641769409180e-01,8.556009531021118164e-01,8.565915822982788086e-01,8.574731349945068359e-01,8.582561612129211426e-01,8.593152761459350586e-01,8.604469895362854004e-01,8.615342974662780762e-01,8.624343276023864746e-01,8.636228442192077637e-01,8.648183345794677734e-01,8.659778833389282227e-01,8.669408559799194336e-01,8.680027723312377930e-01,8.690782189369201660e-01,8.701351881027221680e-01,8.709654808044433594e-01,8.718128204345703125e-01,8.725436925888061523e-01,8.731308579444885254e-01,8.736388087272644043e-01,8.738108873367309570e-01,8.738618493080139160e-01,8.737934827804565430e-01,8.737470507621765137e-01,8.733574748039245605e-01,8.729366064071655273e-01,8.723058104515075684e-01,8.717956542968750000e-01,8.706780672073364258e-01,8.694813251495361328e-01,8.679797649383544922e-01,8.668274283409118652e-01,8.653070330619812012e-01,8.637763261795043945e-01,8.621020317077636719e-01,8.608154058456420898e-01,8.589528203010559082e-01,8.568689227104187012e-01,8.543939590454101562e-01,8.525357246398925781e-01,8.505372405052185059e-01,8.483389616012573242e-01,8.461344242095947266e-01,8.444223999977111816e-01,8.426374793052673340e-01,8.404816985130310059e-01,8.380854129791259766e-01,8.362030386924743652e-01,8.345723748207092285e-01,8.325758576393127441e-01
8.440705537796020508e-01,8.442361950874328613e-01,8.444707989692687988e-01,8.447241783142089844e-01,8.449100255966186523e-01,8.450661301612854004e-01,8.452852964401245117e-01,8.454406857490539551e-01,8.455509543418884277e-01,8.456767797470092773e-01,8.458486795425415039e-01,8.460013270378112793e-01,8.461174368858337402e-01,8.462186455726623535e-01,8.463537096977233887e-01,8.464463353157043457e-01,8.465214967727661133e-01,8.466063737869262695e-01,8.467311859130859375e-01,8.468390107154846191e-01,8.469202518463134766e-01,8.470098972320556641e-01,8.471142053604125977e-01,8.471879959106445312e-01,8.472451567649841309e-01,8.472894430160522461e-01,8.473452925682067871e-01,8.473777770996093750e-01,8.473998904228210449e-01,8.474146723747253418e-01,8.474356532096862793e-01,8.474450707435607910e-01,8.474562168121337891e-01,8.474860787391662598e-01,8.475351333618164062e-01,8.475731611251831055e-01,8.475984334945678711e-01,8.476121425628662109e-01,8.476201891899108887e-01,8.476001620292663574e-01,8.475860953330993652e-01,8.475635647773742676e-01,8.475415110588073730e-01,8.475114107131958008e-01,8.474841117858886719e-01,8.474440574645996094e-01,8.474124670028686523e-01,8.473909497261047363e-01,8.473816514015197754e-01,8.474841117858886719e-01,8.476406335830688477e-01,8.478450179100036621e-01,8.479811549186706543e-01,8.481478691101074219e-01,8.483839035034179688e-01,8.486138582229614258e-01,8.487687110900878906e-01,8.490873575210571289e-01,8.495000004768371582e-01,8.499467968940734863e-01,8.502475619316101074e-01,8.506534099578857422e-01,8.511894941329956055e-01,8.517090082168579102e-01,8.520750403404235840e-01,8.527222275733947754e-01,8.535205125808715820e-01,8.543376326560974121e-01,8.549219369888305664e-01,8.557291626930236816e-01,8.566660284996032715e-01,8.575649857521057129e-01,8.582301139831542969e-01,8.592095375061035156e-01,8.602691292762756348e-01,8.613590598106384277e-01,8.621591925621032715e-01,8.632771372795104980e-01,8.644037842750549316e-01,8.655100464820861816e-01,8.663992285728454590e-01,8.674351572990417480e-01,8.684525489807128906e-01,8.694827556610107422e-01,8.702697157859802246e-01,8.711017370223999023e-01,8.718116283416748047e-01,8.723604083061218262e-01,8.728574514389038086e-01,8.730266094207763672e-01,8.730896711349487305e-01,8.730186820030212402e-01,8.729721903800964355e-01,8.726171851158142090e-01,8.722269535064697266e-01,8.715589642524719238e-01,8.710772395133972168e-01,8.699602484703063965e-01,8.688221573829650879e-01,8.673300147056579590e-01,8.661485314369201660e-01,8.646723031997680664e-01,8.631980419158935547e-01,8.615693449974060059e-01,8.602410554885864258e-01,8.583109974861145020e-01,8.563181161880493164e-01,8.539166450500488281e-01,8.519705533981323242e-01,8.499960303306579590e-01,8.478505015373229980e-01,8.456991314888000488e-01,8.439303040504455566e-01,8.421077132225036621e-01,8.399982452392578125e-01,8.376357555389404297e-01,8.356874585151672363e-01,8.340794444084167480e-01,8.321256637573242188e-01
8.448197245597839355e-01,8.449913859367370605e-01,8.452237248420715332e-01,8.454588651657104492e-01,8.456442952156066895e-01,8.458036780357360840e-01,8.460158109664916992e-01,8.461526632308959961e-01,8.462647795677185059e-01,8.463990688323974609e-01,8.465653657913208008e-01,8.467091917991638184e-01,8.468318581581115723e-01,8.469421267509460449e-01,8.470700383186340332e-01,8.471581339836120605e-01,8.472375273704528809e-01,8.473319411277770996e-01,8.474465608596801758e-01,8.475517630577087402e-01,8.476387858390808105e-01,8.477364182472229004e-01,8.478327989578247070e-01,8.479006886482238770e-01,8.479596376419067383e-01,8.480067849159240723e-01,8.480561971664428711e-01,8.480873107910156250e-01,8.481180071830749512e-01,8.481385111808776855e-01,8.481562733650207520e-01,8.481657505035400391e-01,8.481807112693786621e-01,8.482157588005065918e-01,8.482556343078613281e-01,8.482944965362548828e-01,8.483272790908813477e-01,8.483458757400512695e-01,8.483509421348571777e-01,8.483327627182006836e-01,8.483223915100097656e-01,8.483040928840637207e-01,8.482765555381774902e-01,8.482542037963867188e-01,8.482383489608764648e-01,8.482041358947753906e-01,8.481739163398742676e-01,8.481550812721252441e-01,8.481401205062866211e-01,8.482406735420227051e-01,8.484000563621520996e-01,8.485965132713317871e-01,8.487312197685241699e-01,8.488926887512207031e-01,8.491283655166625977e-01,8.493358492851257324e-01,8.494855761528015137e-01,8.497985601425170898e-01,8.502187132835388184e-01,8.506252169609069824e-01,8.509145379066467285e-01,8.512895703315734863e-01,8.518216013908386230e-01,8.522526621818542480e-01,8.526000380516052246e-01,8.531988263130187988e-01,8.540192842483520508e-01,8.547365069389343262e-01,8.552898764610290527e-01,8.560150861740112305e-01,8.569797277450561523e-01,8.577622771263122559e-01,8.583768606185913086e-01,8.592689633369445801e-01,8.603712916374206543e-01,8.613581061363220215e-01,8.621093034744262695e-01,8.631272912025451660e-01,8.643006086349487305e-01,8.653110265731811523e-01,8.661453127861022949e-01,8.670915961265563965e-01,8.681516051292419434e-01,8.691298365592956543e-01,8.699010610580444336e-01,8.706908226013183594e-01,8.714364171028137207e-01,8.719468116760253906e-01,8.724219799041748047e-01,8.725639581680297852e-01,8.726398348808288574e-01,8.725748062133789062e-01,8.725605607032775879e-01,8.722655773162841797e-01,8.718547224998474121e-01,8.711960911750793457e-01,8.707409501075744629e-01,8.696498870849609375e-01,8.684670925140380859e-01,8.669971227645874023e-01,8.658790588378906250e-01,8.644828796386718750e-01,8.629682660102844238e-01,8.613644838333129883e-01,8.600767254829406738e-01,8.581761121749877930e-01,8.561094999313354492e-01,8.536739349365234375e-01,8.518003225326538086e-01,8.498705625534057617e-01,8.477212786674499512e-01,8.455603718757629395e-01,8.437996506690979004e-01,8.419860005378723145e-01,8.398725390434265137e-01,8.374863862991333008e-01,8.355807065963745117e-01,8.339805006980895996e-01,8.320233821868896484e-01
8.458349704742431641e-01,8.460130691528320312e-01,8.462247252464294434e-01,8.464493751525878906e-01,8.466411828994750977e-01,8.468110561370849609e-01,8.470060229301452637e-01,8.471491336822509766e-01,8.472762703895568848e-01,8.474081754684448242e-01,8.475664854049682617e-01,8.477181196212768555e-01,8.478589653968811035e-01,8.479639291763305664e-01,8.480904698371887207e-01,8.481847047805786133e-01,8.482793569564819336e-01,8.483695983886718750e-01,8.484889268875122070e-01,8.485965132713317871e-01,8.486976027488708496e-01,8.487880825996398926e-01,8.488839864730834961e-01,8.489583730697631836e-01,8.490266799926757812e-01,8.490706086158752441e-01,8.491227030754089355e-01,8.491621613502502441e-01,8.492067456245422363e-01,8.492183089256286621e-01,8.492411375045776367e-01,8.492579460144042969e-01,8.492826819419860840e-01,8.493136167526245117e-01,8.493642807006835938e-01,8.494057655334472656e-01,8.494479060173034668e-01,8.494601845741271973e-01,8.494701981544494629e-01,8.494599461555480957e-01,8.494580388069152832e-01,8.494377732276916504e-01,8.494199514389038086e-01,8.493954539299011230e-01,8.493879437446594238e-01,8.493504524230957031e-01,8.493205904960632324e-01,8.492999672889709473e-01,8.492913842201232910e-01,8.494060635566711426e-01,8.495507240295410156e-01,8.497101664543151855e-01,8.498435020446777344e-01,8.500233292579650879e-01,8.502256870269775391e-01,8.504233360290527344e-01,8.505768775939941406e-01,8.509018421173095703e-01,8.512694835662841797e-01,8.516343832015991211e-01,8.519047498703002930e-01,8.523035645484924316e-01,8.527487516403198242e-01,8.531618118286132812e-01,8.534768223762512207e-01,8.541036248207092285e-01,8.547976613044738770e-01,8.554773926734924316e-01,8.559884428977966309e-01,8.567560315132141113e-01,8.575593829154968262e-01,8.582982420921325684e-01,8.588718175888061523e-01,8.598076105117797852e-01,8.607555627822875977e-01,8.617069721221923828e-01,8.624315857887268066e-01,8.634612560272216797e-01,8.644693493843078613e-01,8.654525876045227051e-01,8.662351369857788086e-01,8.672178983688354492e-01,8.681853413581848145e-01,8.691758513450622559e-01,8.699495792388916016e-01,8.707265257835388184e-01,8.713914155960083008e-01,8.719161748886108398e-01,8.723501563072204590e-01,8.725343346595764160e-01,8.726102113723754883e-01,8.726080656051635742e-01,8.726447820663452148e-01,8.723099827766418457e-01,8.719063401222229004e-01,8.713055849075317383e-01,8.708361387252807617e-01,8.697478175163269043e-01,8.685943484306335449e-01,8.672270774841308594e-01,8.661507964134216309e-01,8.647354841232299805e-01,8.632608652114868164e-01,8.616698980331420898e-01,8.604044914245605469e-01,8.585161566734313965e-01,8.564534783363342285e-01,8.540635704994201660e-01,8.522201180458068848e-01,8.503044247627258301e-01,8.481261730194091797e-01,8.459533452987670898e-01,8.442088365554809570e-01,8.424483537673950195e-01,8.402666449546813965e-01,8.378582000732421875e-01,8.359574079513549805e-01,8.343779444694519043e-01,8.323655128479003906e-01
8.467221856117248535e-01,8.468950986862182617e-01,8.471009731292724609e-01,8.473260402679443359e-01,8.475208282470703125e-01,8.476881980895996094e-01,8.478761911392211914e-01,8.480304479598999023e-01,8.481551408767700195e-01,8.482862114906311035e-01,8.484420776367187500e-01,8.486073017120361328e-01,8.487429022789001465e-01,8.488475084304809570e-01,8.489734530448913574e-01,8.490828275680541992e-01,8.491759896278381348e-01,8.492696285247802734e-01,8.493819236755371094e-01,8.495011329650878906e-01,8.496001958847045898e-01,8.496911525726318359e-01,8.497846126556396484e-01,8.498706817626953125e-01,8.499379754066467285e-01,8.499854803085327148e-01,8.500334620475769043e-01,8.500874638557434082e-01,8.501260876655578613e-01,8.501384854316711426e-01,8.501620888710021973e-01,8.501939773559570312e-01,8.502191305160522461e-01,8.502545356750488281e-01,8.502971529960632324e-01,8.503505587577819824e-01,8.503884077072143555e-01,8.504027128219604492e-01,8.504156470298767090e-01,8.504182100296020508e-01,8.504131436347961426e-01,8.503981232643127441e-01,8.503770232200622559e-01,8.503596782684326172e-01,8.503489494323730469e-01,8.503099083900451660e-01,8.502866029739379883e-01,8.502653241157531738e-01,8.502687811851501465e-01,8.503831624984741211e-01,8.505159020423889160e-01,8.506557941436767578e-01,8.507978916168212891e-01,8.509725332260131836e-01,8.511688709259033203e-01,8.513465523719787598e-01,8.515229225158691406e-01,8.518320918083190918e-01,8.521842956542968750e-01,8.525019288063049316e-01,8.528157472610473633e-01,8.531819581985473633e-01,8.535897731781005859e-01,8.539460897445678711e-01,8.543183803558349609e-01,8.549028635025024414e-01,8.555508852005004883e-01,8.561474680900573730e-01,8.567115664482116699e-01,8.574243783950805664e-01,8.581666350364685059e-01,8.588175773620605469e-01,8.594308495521545410e-01,8.603199124336242676e-01,8.612149953842163086e-01,8.620901703834533691e-01,8.628354668617248535e-01,8.638124465942382812e-01,8.647769689559936523e-01,8.656892180442810059e-01,8.664655089378356934e-01,8.674303889274597168e-01,8.683736324310302734e-01,8.693323135375976562e-01,8.700745701789855957e-01,8.708249330520629883e-01,8.715013265609741211e-01,8.720262050628662109e-01,8.724514245986938477e-01,8.726642131805419922e-01,8.727449774742126465e-01,8.727729320526123047e-01,8.727746605873107910e-01,8.724514245986938477e-01,8.720788955688476562e-01,8.715218901634216309e-01,8.710623383522033691e-01,8.700087666511535645e-01,8.688764572143554688e-01,8.675526976585388184e-01,8.664506673812866211e-01,8.650239706039428711e-01,8.635913133621215820e-01,8.620297312736511230e-01,8.607921600341796875e-01,8.588727712631225586e-01,8.568012118339538574e-01,8.544261455535888672e-01,8.526185750961303711e-01,8.506577014923095703e-01,8.484933376312255859e-01,8.462955951690673828e-01,8.445994257926940918e-01,8.428085446357727051e-01,8.406208157539367676e-01,8.381859660148620605e-01,8.363106250762939453e-01,8.347000479698181152e-01,8.327080607414245605e-01
8.478002548217773438e-01,8.479607105255126953e-01,8.481705784797668457e-01,8.484019041061401367e-01,8.485869765281677246e-01,8.487353920936584473e-01,8.489353656768798828e-01,8.490923643112182617e-01,8.492119908332824707e-01,8.493372201919555664e-01,8.495054244995117188e-01,8.496644496917724609e-01,8.498004674911499023e-01,8.499042987823486328e-01,8.500396609306335449e-01,8.501439094543457031e-01,8.502386212348937988e-01,8.503249883651733398e-01,8.504498600959777832e-01,8.505679965019226074e-01,8.506706357002258301e-01,8.507553935050964355e-01,8.508596420288085938e-01,8.509405851364135742e-01,8.510115146636962891e-01,8.510542511940002441e-01,8.511140942573547363e-01,8.511594533920288086e-01,8.512049913406372070e-01,8.512207865715026855e-01,8.512511849403381348e-01,8.512762188911437988e-01,8.513079285621643066e-01,8.513382673263549805e-01,8.513903617858886719e-01,8.514380455017089844e-01,8.514842391014099121e-01,8.515033125877380371e-01,8.515234589576721191e-01,8.515201210975646973e-01,8.515236973762512207e-01,8.515073657035827637e-01,8.514900207519531250e-01,8.514641523361206055e-01,8.514608740806579590e-01,8.514260649681091309e-01,8.514003753662109375e-01,8.513966202735900879e-01,8.513959646224975586e-01,8.514868021011352539e-01,8.516100645065307617e-01,8.517684340476989746e-01,8.518940806388854980e-01,8.520413041114807129e-01,8.522350192070007324e-01,8.524495959281921387e-01,8.525959253311157227e-01,8.528580069541931152e-01,8.531980514526367188e-01,8.535569310188293457e-01,8.538087606430053711e-01,8.541001081466674805e-01,8.545082211494445801e-01,8.549219369888305664e-01,8.552076816558837891e-01,8.556982874870300293e-01,8.563563227653503418e-01,8.570088148117065430e-01,8.574547767639160156e-01,8.580513596534729004e-01,8.588033318519592285e-01,8.594968914985656738e-01,8.599815368652343750e-01,8.607642650604248047e-01,8.616910576820373535e-01,8.625817894935607910e-01,8.632215857505798340e-01,8.641025424003601074e-01,8.650598526000976562e-01,8.659465909004211426e-01,8.666331171989440918e-01,8.675503134727478027e-01,8.685075640678405762e-01,8.694356083869934082e-01,8.701423406600952148e-01,8.708994388580322266e-01,8.715388178825378418e-01,8.720211386680603027e-01,8.724353313446044922e-01,8.726731538772583008e-01,8.727636337280273438e-01,8.727803826332092285e-01,8.727989792823791504e-01,8.725506663322448730e-01,8.721733689308166504e-01,8.715638518333435059e-01,8.711530566215515137e-01,8.701499104499816895e-01,8.690298795700073242e-01,8.677041530609130859e-01,8.666344285011291504e-01,8.652846813201904297e-01,8.638626933097839355e-01,8.622961044311523438e-01,8.610525131225585938e-01,8.591651320457458496e-01,8.571222424507141113e-01,8.547874689102172852e-01,8.529351949691772461e-01,8.509814143180847168e-01,8.488383889198303223e-01,8.466992974281311035e-01,8.449352979660034180e-01,8.431093096733093262e-01,8.409185409545898438e-01,8.384906649589538574e-01,8.365464210510253906e-01,8.349533677101135254e-01,8.329442143440246582e-01
8.487840890884399414e-01,8.489480614662170410e-01,8.491557836532592773e-01,8.493889570236206055e-01,8.495699763298034668e-01,8.497202396392822266e-01,8.499116897583007812e-01,8.500691056251525879e-01,8.501952886581420898e-01,8.503276109695434570e-01,8.504862785339355469e-01,8.506517410278320312e-01,8.507908582687377930e-01,8.509057760238647461e-01,8.510324954986572266e-01,8.511484861373901367e-01,8.512499928474426270e-01,8.513463139533996582e-01,8.514614105224609375e-01,8.515884876251220703e-01,8.516915440559387207e-01,8.517869114875793457e-01,8.518829345703125000e-01,8.519713878631591797e-01,8.520474433898925781e-01,8.520981669425964355e-01,8.521497249603271484e-01,8.522017002105712891e-01,8.522524833679199219e-01,8.522791862487792969e-01,8.523019552230834961e-01,8.523390293121337891e-01,8.523778319358825684e-01,8.524160981178283691e-01,8.524575829505920410e-01,8.525150418281555176e-01,8.525652885437011719e-01,8.525925874710083008e-01,8.526082634925842285e-01,8.526136279106140137e-01,8.526232242584228516e-01,8.526139855384826660e-01,8.525896072387695312e-01,8.525725603103637695e-01,8.525699377059936523e-01,8.525397777557373047e-01,8.525169491767883301e-01,8.525177836418151855e-01,8.525204658508300781e-01,8.526070713996887207e-01,8.527321815490722656e-01,8.528878092765808105e-01,8.529985547065734863e-01,8.531368374824523926e-01,8.533397316932678223e-01,8.535374402999877930e-01,8.536766171455383301e-01,8.539245128631591797e-01,8.542717099189758301e-01,8.545935153961181641e-01,8.548336029052734375e-01,8.551006913185119629e-01,8.555112481117248535e-01,8.558751940727233887e-01,8.561669588088989258e-01,8.566256165504455566e-01,8.572731614112854004e-01,8.578543066978454590e-01,8.582970499992370605e-01,8.588653206825256348e-01,8.596041798591613770e-01,8.602213263511657715e-01,8.606913089752197266e-01,8.614512681961059570e-01,8.623769283294677734e-01,8.631790280342102051e-01,8.637822866439819336e-01,8.646380901336669922e-01,8.656072020530700684e-01,8.664326071739196777e-01,8.670767545700073242e-01,8.679717183113098145e-01,8.689379692077636719e-01,8.698223829269409180e-01,8.704823851585388184e-01,8.712309598922729492e-01,8.719047904014587402e-01,8.723755478858947754e-01,8.727646470069885254e-01,8.729796409606933594e-01,8.730878233909606934e-01,8.731083869934082031e-01,8.731319904327392578e-01,8.729078769683837891e-01,8.725553750991821289e-01,8.719732165336608887e-01,8.715904355049133301e-01,8.705734610557556152e-01,8.694478273391723633e-01,8.681536316871643066e-01,8.671434521675109863e-01,8.658412694931030273e-01,8.643866777420043945e-01,8.628140687942504883e-01,8.616180419921875000e-01,8.597389459609985352e-01,8.576647639274597168e-01,8.553271889686584473e-01,8.535507321357727051e-01,8.516031503677368164e-01,8.494396209716796875e-01,8.472523093223571777e-01,8.455566763877868652e-01,8.436893820762634277e-01,8.415012359619140625e-01,8.390308618545532227e-01,8.371515274047851562e-01,8.355124592781066895e-01,8.335188031196594238e-01
8.501842617988586426e-01,8.503447175025939941e-01,8.505407571792602539e-01,8.507692813873291016e-01,8.509572148323059082e-01,8.511125445365905762e-01,8.512960076332092285e-01,8.514577150344848633e-01,8.515949845314025879e-01,8.517193198204040527e-01,8.518779277801513672e-01,8.520545363426208496e-01,8.522073030471801758e-01,8.523145914077758789e-01,8.524497747421264648e-01,8.525704145431518555e-01,8.526828885078430176e-01,8.527703285217285156e-01,8.528950810432434082e-01,8.530265688896179199e-01,8.531409502029418945e-01,8.532278537750244141e-01,8.533326983451843262e-01,8.534245491027832031e-01,8.535072207450866699e-01,8.535507321357727051e-01,8.536130189895629883e-01,8.536745905876159668e-01,8.537328839302062988e-01,8.537521362304687500e-01,8.537899851799011230e-01,8.538318276405334473e-01,8.538776040077209473e-01,8.539073467254638672e-01,8.539659380912780762e-01,8.540288805961608887e-01,8.540840148925781250e-01,8.541027903556823730e-01,8.541338443756103516e-01,8.541479110717773438e-01,8.541616797447204590e-01,8.541424274444580078e-01,8.541346192359924316e-01,8.541198372840881348e-01,8.541163206100463867e-01,8.540875315666198730e-01,8.540711402893066406e-01,8.540711998939514160e-01,8.540729284286499023e-01,8.541613817214965820e-01,8.542773723602294922e-01,8.544115424156188965e-01,8.545089960098266602e-01,8.546658754348754883e-01,8.548387885093688965e-01,8.550221920013427734e-01,8.551570177078247070e-01,8.554217815399169922e-01,8.557102680206298828e-01,8.560081124305725098e-01,8.562269806861877441e-01,8.565320968627929688e-01,8.568558096885681152e-01,8.572082519531250000e-01,8.574867248535156250e-01,8.579753637313842773e-01,8.585183024406433105e-01,8.590884804725646973e-01,8.595154881477355957e-01,8.601039052009582520e-01,8.607298135757446289e-01,8.613213300704956055e-01,8.617807030677795410e-01,8.625434041023254395e-01,8.633477687835693359e-01,8.641384243965148926e-01,8.647328019142150879e-01,8.655848503112792969e-01,8.664281964302062988e-01,8.672307729721069336e-01,8.678473234176635742e-01,8.687437772750854492e-01,8.696333169937133789e-01,8.705193996429443359e-01,8.711730241775512695e-01,8.719036579132080078e-01,8.725184798240661621e-01,8.729983568191528320e-01,8.733586668968200684e-01,8.735828399658203125e-01,8.737043738365173340e-01,8.737699389457702637e-01,8.738024830818176270e-01,8.735482692718505859e-01,8.732197284698486328e-01,8.726906776428222656e-01,8.722813129425048828e-01,8.712877035140991211e-01,8.702206015586853027e-01,8.689911365509033203e-01,8.680156469345092773e-01,8.666843175888061523e-01,8.652922511100769043e-01,8.637714385986328125e-01,8.625779151916503906e-01,8.607153296470642090e-01,8.587024211883544922e-01,8.563854694366455078e-01,8.546463847160339355e-01,8.526982069015502930e-01,8.505407571792602539e-01,8.483588695526123047e-01,8.466389775276184082e-01,8.448122739791870117e-01,8.425769805908203125e-01,8.400804400444030762e-01,8.381475210189819336e-01,8.365529179573059082e-01,8.345128297805786133e-01
8.513566851615905762e-01,8.515171408653259277e-01,8.517118692398071289e-01,8.519344329833984375e-01,8.521205782890319824e-01,8.522799611091613770e-01,8.524611592292785645e-01,8.526269793510437012e-01,8.527613878250122070e-01,8.528881669044494629e-01,8.530504703521728516e-01,8.532322049140930176e-01,8.533790707588195801e-01,8.534948825836181641e-01,8.536321520805358887e-01,8.537595868110656738e-01,8.538683652877807617e-01,8.539616465568542480e-01,8.540890216827392578e-01,8.542264699935913086e-01,8.543390035629272461e-01,8.544338941574096680e-01,8.545392155647277832e-01,8.546394109725952148e-01,8.547185659408569336e-01,8.547703623771667480e-01,8.548339009284973145e-01,8.549035787582397461e-01,8.549566268920898438e-01,8.549845218658447266e-01,8.550252914428710938e-01,8.550754189491271973e-01,8.551167249679565430e-01,8.551547527313232422e-01,8.552134037017822266e-01,8.552849888801574707e-01,8.553365468978881836e-01,8.553642630577087402e-01,8.553984761238098145e-01,8.554225564002990723e-01,8.554357886314392090e-01,8.554227948188781738e-01,8.554140925407409668e-01,8.554010987281799316e-01,8.553973436355590820e-01,8.553758263587951660e-01,8.553610444068908691e-01,8.553537130355834961e-01,8.553647994995117188e-01,8.554522991180419922e-01,8.555571436882019043e-01,8.556659221649169922e-01,8.557764291763305664e-01,8.559350967407226562e-01,8.561015129089355469e-01,8.562549948692321777e-01,8.564046025276184082e-01,8.566589951515197754e-01,8.569355607032775879e-01,8.571833372116088867e-01,8.574252724647521973e-01,8.577193021774291992e-01,8.580314517021179199e-01,8.583270311355590820e-01,8.586274385452270508e-01,8.590916395187377930e-01,8.596199154853820801e-01,8.601178526878356934e-01,8.605735898017883301e-01,8.611291646957397461e-01,8.617290258407592773e-01,8.622480034828186035e-01,8.627341985702514648e-01,8.634506464004516602e-01,8.642387390136718750e-01,8.649530410766601562e-01,8.655722737312316895e-01,8.663780689239501953e-01,8.672038912773132324e-01,8.679215312004089355e-01,8.685411214828491211e-01,8.693985342979431152e-01,8.702889084815979004e-01,8.711221814155578613e-01,8.717702031135559082e-01,8.724679350852966309e-01,8.730997443199157715e-01,8.735496997833251953e-01,8.738957047462463379e-01,8.741013407707214355e-01,8.742502927780151367e-01,8.743421435356140137e-01,8.743739128112792969e-01,8.741182088851928711e-01,8.738116025924682617e-01,8.733272552490234375e-01,8.729139566421508789e-01,8.719403743743896484e-01,8.709020614624023438e-01,8.697385787963867188e-01,8.687500357627868652e-01,8.674351572990417480e-01,8.660624623298645020e-01,8.646019697189331055e-01,8.633878231048583984e-01,8.615277409553527832e-01,8.595426678657531738e-01,8.572838306427001953e-01,8.555344939231872559e-01,8.535434603691101074e-01,8.513991832733154297e-01,8.492149114608764648e-01,8.475216031074523926e-01,8.456406593322753906e-01,8.433973789215087891e-01,8.408843874931335449e-01,8.389723896980285645e-01,8.373251557350158691e-01,8.353074789047241211e-01
8.528002500534057617e-01,8.529531359672546387e-01,8.531568050384521484e-01,8.533836603164672852e-01,8.535645008087158203e-01,8.537183403968811035e-01,8.539113402366638184e-01,8.540742397308349609e-01,8.542119860649108887e-01,8.543385863304138184e-01,8.545112013816833496e-01,8.546915650367736816e-01,8.548448681831359863e-01,8.549652099609375000e-01,8.551127910614013672e-01,8.552357554435729980e-01,8.553532361984252930e-01,8.554498553276062012e-01,8.555802106857299805e-01,8.557169437408447266e-01,8.558384776115417480e-01,8.559376001358032227e-01,8.560475111007690430e-01,8.561422228813171387e-01,8.562344908714294434e-01,8.562884926795959473e-01,8.563544154167175293e-01,8.564202189445495605e-01,8.564858436584472656e-01,8.565218448638916016e-01,8.565646409988403320e-01,8.566094040870666504e-01,8.566651344299316406e-01,8.567085862159729004e-01,8.567672371864318848e-01,8.568347096443176270e-01,8.569019436836242676e-01,8.569378852844238281e-01,8.569734692573547363e-01,8.569907546043395996e-01,8.570177555084228516e-01,8.570111989974975586e-01,8.570006489753723145e-01,8.569858670234680176e-01,8.569898009300231934e-01,8.569737076759338379e-01,8.569582104682922363e-01,8.569645285606384277e-01,8.569752573966979980e-01,8.570471405982971191e-01,8.571429848670959473e-01,8.572700023651123047e-01,8.573641180992126465e-01,8.575020432472229004e-01,8.576642274856567383e-01,8.578488826751708984e-01,8.579721450805664062e-01,8.581956624984741211e-01,8.584598898887634277e-01,8.587384223937988281e-01,8.589335680007934570e-01,8.591830730438232422e-01,8.594954013824462891e-01,8.598389029502868652e-01,8.600844740867614746e-01,8.605003356933593750e-01,8.610142469406127930e-01,8.615563511848449707e-01,8.619373440742492676e-01,8.624303936958312988e-01,8.630163669586181641e-01,8.635740280151367188e-01,8.639854192733764648e-01,8.646471500396728516e-01,8.654052615165710449e-01,8.661420941352844238e-01,8.666828870773315430e-01,8.674326539039611816e-01,8.682204484939575195e-01,8.689327239990234375e-01,8.694818019866943359e-01,8.703130483627319336e-01,8.711507916450500488e-01,8.719542622566223145e-01,8.725624680519104004e-01,8.732551932334899902e-01,8.738319873809814453e-01,8.742446899414062500e-01,8.745718598365783691e-01,8.748232722282409668e-01,8.749184608459472656e-01,8.749598860740661621e-01,8.750175833702087402e-01,8.747986555099487305e-01,8.744711279869079590e-01,8.739553689956665039e-01,8.735700249671936035e-01,8.726679682731628418e-01,8.716440200805664062e-01,8.704451918601989746e-01,8.695042133331298828e-01,8.682569265365600586e-01,8.669080734252929688e-01,8.654205799102783203e-01,8.642556667327880859e-01,8.624545335769653320e-01,8.604813218116760254e-01,8.582080602645874023e-01,8.564782142639160156e-01,8.545307517051696777e-01,8.523740172386169434e-01,8.502164483070373535e-01,8.485123515129089355e-01,8.466012477874755859e-01,8.443191647529602051e-01,8.417947888374328613e-01,8.398547768592834473e-01,8.382239341735839844e-01,8.361766934394836426e-01
8.541824221611022949e-01,8.543449640274047852e-01,8.545468449592590332e-01,8.547703623771667480e-01,8.549458980560302734e-01,8.551080822944641113e-01,8.553004264831542969e-01,8.554643392562866211e-01,8.555958271026611328e-01,8.557370305061340332e-01,8.559074997901916504e-01,8.560932874679565430e-01,8.562425374984741211e-01,8.563789129257202148e-01,8.565263152122497559e-01,8.566589951515197754e-01,8.567707538604736328e-01,8.568809032440185547e-01,8.570097088813781738e-01,8.571559190750122070e-01,8.572715520858764648e-01,8.573815226554870605e-01,8.574931621551513672e-01,8.575968146324157715e-01,8.576825857162475586e-01,8.577438592910766602e-01,8.578106760978698730e-01,8.578872680664062500e-01,8.579500913619995117e-01,8.579950928688049316e-01,8.580394983291625977e-01,8.580961227416992188e-01,8.581464290618896484e-01,8.582003712654113770e-01,8.582583069801330566e-01,8.583385348320007324e-01,8.584002256393432617e-01,8.584445714950561523e-01,8.584805130958557129e-01,8.585077524185180664e-01,8.585326075553894043e-01,8.585314750671386719e-01,8.585214614868164062e-01,8.585183024406433105e-01,8.585235476493835449e-01,8.585096597671508789e-01,8.584964275360107422e-01,8.585063219070434570e-01,8.585110902786254883e-01,8.585803508758544922e-01,8.586797118186950684e-01,8.588025569915771484e-01,8.588904738426208496e-01,8.590115904808044434e-01,8.591812252998352051e-01,8.593440651893615723e-01,8.594551682472229004e-01,8.596620559692382812e-01,8.599395751953125000e-01,8.601910471916198730e-01,8.603743910789489746e-01,8.605960011482238770e-01,8.609237670898437500e-01,8.612187504768371582e-01,8.614428639411926270e-01,8.618385195732116699e-01,8.623694181442260742e-01,8.628630638122558594e-01,8.632192015647888184e-01,8.636924624443054199e-01,8.642835021018981934e-01,8.647741675376892090e-01,8.651427030563354492e-01,8.657675385475158691e-01,8.665370345115661621e-01,8.671964406967163086e-01,8.676974177360534668e-01,8.683933019638061523e-01,8.692018389701843262e-01,8.698412179946899414e-01,8.703349232673645020e-01,8.711069226264953613e-01,8.719720244407653809e-01,8.727242350578308105e-01,8.732913732528686523e-01,8.739264607429504395e-01,8.745364546775817871e-01,8.749012351036071777e-01,8.751934170722961426e-01,8.754016160964965820e-01,8.755404949188232422e-01,8.755939006805419922e-01,8.756523728370666504e-01,8.754143118858337402e-01,8.751043677330017090e-01,8.746038675308227539e-01,8.742582201957702637e-01,8.733537197113037109e-01,8.723353743553161621e-01,8.712006211280822754e-01,8.703140616416931152e-01,8.691182732582092285e-01,8.677402138710021973e-01,8.663144707679748535e-01,8.652052879333496094e-01,8.634185791015625000e-01,8.613926172256469727e-01,8.591568470001220703e-01,8.574910759925842285e-01,8.555423617362976074e-01,8.533709049224853516e-01,8.512204289436340332e-01,8.495494723320007324e-01,8.475760221481323242e-01,8.452841043472290039e-01,8.427226543426513672e-01,8.408222794532775879e-01,8.391051292419433594e-01,8.370638489723205566e-01
8.557303547859191895e-01,8.558932542800903320e-01,8.560944795608520508e-01,8.563096523284912109e-01,8.564836382865905762e-01,8.566547036170959473e-01,8.568474054336547852e-01,8.570067286491394043e-01,8.571445345878601074e-01,8.572868704795837402e-01,8.574643731117248535e-01,8.576498627662658691e-01,8.578094840049743652e-01,8.579443097114562988e-01,8.581022024154663086e-01,8.582301139831542969e-01,8.583472371101379395e-01,8.584581017494201660e-01,8.585993051528930664e-01,8.587402105331420898e-01,8.588621616363525391e-01,8.589698076248168945e-01,8.590891957283020020e-01,8.591879606246948242e-01,8.592756390571594238e-01,8.593365550041198730e-01,8.594121932983398438e-01,8.594885468482971191e-01,8.595553040504455566e-01,8.595962524414062500e-01,8.596513867378234863e-01,8.597066402435302734e-01,8.597592115402221680e-01,8.598098158836364746e-01,8.598818778991699219e-01,8.599601984024047852e-01,8.600240945816040039e-01,8.600630164146423340e-01,8.601101636886596680e-01,8.601408600807189941e-01,8.601686358451843262e-01,8.601621389389038086e-01,8.601626157760620117e-01,8.601611256599426270e-01,8.601627945899963379e-01,8.601467609405517578e-01,8.601416349411010742e-01,8.601475358009338379e-01,8.601504564285278320e-01,8.602232336997985840e-01,8.603135943412780762e-01,8.604144454002380371e-01,8.604826927185058594e-01,8.606193065643310547e-01,8.607637882232666016e-01,8.609145283699035645e-01,8.610107302665710449e-01,8.612345457077026367e-01,8.614680767059326172e-01,8.616916537284851074e-01,8.618465065956115723e-01,8.621008992195129395e-01,8.623637557029724121e-01,8.626391291618347168e-01,8.628398180007934570e-01,8.632729649543762207e-01,8.637342453002929688e-01,8.641918897628784180e-01,8.645274043083190918e-01,8.650239706039428711e-01,8.655285239219665527e-01,8.659945130348205566e-01,8.663333654403686523e-01,8.669868707656860352e-01,8.676577806472778320e-01,8.683014512062072754e-01,8.687807321548461914e-01,8.694929480552673340e-01,8.701808452606201172e-01,8.707979917526245117e-01,8.712545037269592285e-01,8.720605969429016113e-01,8.728257417678833008e-01,8.735510110855102539e-01,8.740925192832946777e-01,8.747334480285644531e-01,8.752368688583374023e-01,8.756099939346313477e-01,8.758687973022460938e-01,8.761025071144104004e-01,8.761982321739196777e-01,8.762719035148620605e-01,8.763289451599121094e-01,8.760821223258972168e-01,8.757439851760864258e-01,8.753015398979187012e-01,8.749409317970275879e-01,8.740392923355102539e-01,8.730676174163818359e-01,8.720095157623291016e-01,8.711705207824707031e-01,8.699390888214111328e-01,8.686470389366149902e-01,8.672572374343872070e-01,8.661606907844543457e-01,8.643393516540527344e-01,8.624178171157836914e-01,8.602281212806701660e-01,8.585811257362365723e-01,8.565756678581237793e-01,8.544678092002868652e-01,8.523228764533996582e-01,8.506308197975158691e-01,8.486542701721191406e-01,8.463555574417114258e-01,8.437576293945312500e-01,8.417946100234985352e-01,8.401134014129638672e-01,8.380602598190307617e-01
8.570560812950134277e-01,8.572232127189636230e-01,8.574228882789611816e-01,8.576353192329406738e-01,8.578103184700012207e-01,8.579866290092468262e-01,8.581795096397399902e-01,8.583434820175170898e-01,8.584773540496826172e-01,8.586287498474121094e-01,8.588092923164367676e-01,8.590018153190612793e-01,8.591550588607788086e-01,8.592987656593322754e-01,8.594603538513183594e-01,8.595930933952331543e-01,8.597099781036376953e-01,8.598306179046630859e-01,8.599708676338195801e-01,8.601135015487670898e-01,8.602316975593566895e-01,8.603463768959045410e-01,8.604692220687866211e-01,8.605676889419555664e-01,8.606536984443664551e-01,8.607215881347656250e-01,8.608020544052124023e-01,8.608791828155517578e-01,8.609423637390136719e-01,8.609887361526489258e-01,8.610497117042541504e-01,8.611055612564086914e-01,8.611569404602050781e-01,8.612152934074401855e-01,8.612901568412780762e-01,8.613694310188293457e-01,8.614289164543151855e-01,8.614743351936340332e-01,8.615289926528930664e-01,8.615603446960449219e-01,8.615837693214416504e-01,8.615834116935729980e-01,8.615904450416564941e-01,8.615851998329162598e-01,8.615864515304565430e-01,8.615731596946716309e-01,8.615713715553283691e-01,8.615652918815612793e-01,8.615785837173461914e-01,8.616505861282348633e-01,8.617316484451293945e-01,8.618043661117553711e-01,8.618871569633483887e-01,8.620134592056274414e-01,8.621498942375183105e-01,8.622674942016601562e-01,8.623872399330139160e-01,8.625966906547546387e-01,8.628163933753967285e-01,8.629922866821289062e-01,8.631715774536132812e-01,8.634028434753417969e-01,8.636542558670043945e-01,8.638835549354553223e-01,8.641191720962524414e-01,8.645282387733459473e-01,8.649645447731018066e-01,8.653690218925476074e-01,8.657431006431579590e-01,8.661984801292419434e-01,8.666686415672302246e-01,8.670762181282043457e-01,8.674653172492980957e-01,8.680729269981384277e-01,8.687017560005187988e-01,8.692766427993774414e-01,8.697943687438964844e-01,8.704496026039123535e-01,8.710966110229492188e-01,8.716319203376770020e-01,8.721203207969665527e-01,8.728797435760498047e-01,8.736026883125305176e-01,8.742544651031494141e-01,8.748000264167785645e-01,8.753916621208190918e-01,8.758878111839294434e-01,8.762108683586120605e-01,8.764635324478149414e-01,8.766748309135437012e-01,8.767841458320617676e-01,8.768442869186401367e-01,8.768689632415771484e-01,8.766070604324340820e-01,8.763214349746704102e-01,8.759018182754516602e-01,8.755076527595520020e-01,8.746295571327209473e-01,8.737130165100097656e-01,8.727144598960876465e-01,8.718277215957641602e-01,8.706351518630981445e-01,8.693955540657043457e-01,8.680697679519653320e-01,8.669412136077880859e-01,8.651369214057922363e-01,8.632407188415527344e-01,8.611139059066772461e-01,8.594568371772766113e-01,8.574193120002746582e-01,8.553352355957031250e-01,8.532122373580932617e-01,8.515401482582092285e-01,8.495003581047058105e-01,8.471878170967102051e-01,8.445874452590942383e-01,8.426281213760375977e-01,8.408930897712707520e-01,8.388484120368957520e-01
8.585307598114013672e-01,8.586980104446411133e-01,8.588932156562805176e-01,8.591123819351196289e-01,8.592872023582458496e-01,8.594616055488586426e-01,8.596537709236145020e-01,8.598160743713378906e-01,8.599524497985839844e-01,8.601098060607910156e-01,8.602906465530395508e-01,8.604841828346252441e-01,8.606455326080322266e-01,8.607957959175109863e-01,8.609561920166015625e-01,8.610889315605163574e-01,8.612111210823059082e-01,8.613349199295043945e-01,8.614756464958190918e-01,8.616229891777038574e-01,8.617472648620605469e-01,8.618641495704650879e-01,8.619825243949890137e-01,8.620811104774475098e-01,8.621701598167419434e-01,8.622447252273559570e-01,8.623211979866027832e-01,8.623985052108764648e-01,8.624676465988159180e-01,8.625218272209167480e-01,8.625757694244384766e-01,8.626335263252258301e-01,8.626900315284729004e-01,8.627551198005676270e-01,8.628242611885070801e-01,8.629029989242553711e-01,8.629706501960754395e-01,8.630250096321105957e-01,8.630701899528503418e-01,8.630996346473693848e-01,8.631299138069152832e-01,8.631427288055419922e-01,8.631405234336853027e-01,8.631349205970764160e-01,8.631407618522644043e-01,8.631354570388793945e-01,8.631219267845153809e-01,8.631300926208496094e-01,8.631358742713928223e-01,8.631976246833801270e-01,8.632646799087524414e-01,8.633561134338378906e-01,8.634190559387207031e-01,8.635278940200805664e-01,8.636492490768432617e-01,8.637967109680175781e-01,8.638824820518493652e-01,8.640673756599426270e-01,8.642697334289550781e-01,8.644737005233764648e-01,8.646055459976196289e-01,8.648084402084350586e-01,8.650383949279785156e-01,8.653101921081542969e-01,8.654892444610595703e-01,8.658542633056640625e-01,8.662783503532409668e-01,8.667217493057250977e-01,8.670206665992736816e-01,8.674172163009643555e-01,8.678785562515258789e-01,8.683376312255859375e-01,8.686433434486389160e-01,8.691701292991638184e-01,8.698036074638366699e-01,8.704179525375366211e-01,8.708387017250061035e-01,8.714179992675781250e-01,8.720585703849792480e-01,8.726249933242797852e-01,8.730150461196899414e-01,8.736922740936279297e-01,8.744238615036010742e-01,8.750650286674499512e-01,8.755318522453308105e-01,8.760764598846435547e-01,8.765491843223571777e-01,8.768439292907714844e-01,8.770422339439392090e-01,8.772419095039367676e-01,8.773574233055114746e-01,8.773642778396606445e-01,8.773863315582275391e-01,8.771735429763793945e-01,8.768553733825683594e-01,8.763697743415832520e-01,8.760157823562622070e-01,8.752166032791137695e-01,8.743057847023010254e-01,8.732596039772033691e-01,8.724373579025268555e-01,8.713561892509460449e-01,8.701425194740295410e-01,8.687397837638854980e-01,8.677151799201965332e-01,8.659793734550476074e-01,8.640903234481811523e-01,8.619212508201599121e-01,8.603221178054809570e-01,8.583372235298156738e-01,8.562487363815307617e-01,8.541342616081237793e-01,8.524715900421142578e-01,8.504032492637634277e-01,8.480691313743591309e-01,8.454548120498657227e-01,8.434923291206359863e-01,8.417593836784362793e-01,8.397043943405151367e-01
8.598825335502624512e-01,8.600479364395141602e-01,8.602443337440490723e-01,8.604690432548522949e-01,8.606368899345397949e-01,8.608097434043884277e-01,8.609998822212219238e-01,8.611695766448974609e-01,8.613069653511047363e-01,8.614652752876281738e-01,8.616465926170349121e-01,8.618505597114562988e-01,8.620091676712036133e-01,8.621642589569091797e-01,8.623239398002624512e-01,8.624678254127502441e-01,8.625879883766174316e-01,8.627130985260009766e-01,8.628553152084350586e-01,8.630104064941406250e-01,8.631282448768615723e-01,8.632475137710571289e-01,8.633691072463989258e-01,8.634717464447021484e-01,8.635569810867309570e-01,8.636316657066345215e-01,8.637117147445678711e-01,8.637948632240295410e-01,8.638593554496765137e-01,8.639149665832519531e-01,8.639727830886840820e-01,8.640347719192504883e-01,8.640856146812438965e-01,8.641496300697326660e-01,8.642226457595825195e-01,8.643071055412292480e-01,8.643689155578613281e-01,8.644205331802368164e-01,8.644711971282958984e-01,8.645035028457641602e-01,8.645321130752563477e-01,8.645416498184204102e-01,8.645473718643188477e-01,8.645439743995666504e-01,8.645443320274353027e-01,8.645341992378234863e-01,8.645304441452026367e-01,8.645346164703369141e-01,8.645346164703369141e-01,8.645857572555541992e-01,8.646625876426696777e-01,8.647390604019165039e-01,8.647876381874084473e-01,8.648776412010192871e-01,8.650088310241699219e-01,8.651324510574340820e-01,8.652112483978271484e-01,8.653716444969177246e-01,8.655821084976196289e-01,8.657541275024414062e-01,8.658754825592041016e-01,8.660483956336975098e-01,8.662866353988647461e-01,8.665245175361633301e-01,8.666982650756835938e-01,8.670263290405273438e-01,8.674513697624206543e-01,8.678489327430725098e-01,8.681473135948181152e-01,8.685020208358764648e-01,8.689575195312500000e-01,8.693546056747436523e-01,8.696690797805786133e-01,8.701452016830444336e-01,8.707594275474548340e-01,8.713036775588989258e-01,8.717374801635742188e-01,8.722771406173706055e-01,8.728993535041809082e-01,8.733926415443420410e-01,8.737755417823791504e-01,8.744103908538818359e-01,8.751344084739685059e-01,8.757080435752868652e-01,8.761477470397949219e-01,8.766519427299499512e-01,8.771301507949829102e-01,8.773664832115173340e-01,8.775473833084106445e-01,8.777165412902832031e-01,8.778545856475830078e-01,8.778213858604431152e-01,8.778201937675476074e-01,8.775902390480041504e-01,8.773022294044494629e-01,8.768358826637268066e-01,8.764727115631103516e-01,8.756905794143676758e-01,8.747904300689697266e-01,8.737789392471313477e-01,8.729692697525024414e-01,8.719524145126342773e-01,8.707911372184753418e-01,8.694415688514709473e-01,8.683984875679016113e-01,8.667113780975341797e-01,8.648263216018676758e-01,8.626975417137145996e-01,8.611232638359069824e-01,8.591639399528503418e-01,8.570610284805297852e-01,8.549466133117675781e-01,8.533149361610412598e-01,8.512170910835266113e-01,8.488547801971435547e-01,8.462200164794921875e-01,8.442912697792053223e-01,8.425048589706420898e-01,8.404371142387390137e-01
8.612591624259948730e-01,8.614250421524047852e-01,8.616154789924621582e-01,8.618397116661071777e-01,8.620080351829528809e-01,8.621837496757507324e-01,8.623677492141723633e-01,8.625398278236389160e-01,8.626777529716491699e-01,8.628360033035278320e-01,8.630170822143554688e-01,8.632280230522155762e-01,8.633912801742553711e-01,8.635434508323669434e-01,8.637058138847351074e-01,8.638530373573303223e-01,8.639744520187377930e-01,8.641004562377929688e-01,8.642455339431762695e-01,8.643969893455505371e-01,8.645180463790893555e-01,8.646357655525207520e-01,8.647550344467163086e-01,8.648554086685180664e-01,8.649372458457946777e-01,8.650142550468444824e-01,8.650935292243957520e-01,8.651737570762634277e-01,8.652367591857910156e-01,8.652927279472351074e-01,8.653497695922851562e-01,8.654094934463500977e-01,8.654574155807495117e-01,8.655246496200561523e-01,8.655973076820373535e-01,8.656751513481140137e-01,8.657323718070983887e-01,8.657852411270141602e-01,8.658342957496643066e-01,8.658688664436340332e-01,8.658917546272277832e-01,8.659010529518127441e-01,8.659081459045410156e-01,8.659040927886962891e-01,8.658974766731262207e-01,8.658904433250427246e-01,8.658850789070129395e-01,8.658868670463562012e-01,8.658795356750488281e-01,8.659343123435974121e-01,8.659934997558593750e-01,8.660531640052795410e-01,8.660830259323120117e-01,8.661888241767883301e-01,8.662874698638916016e-01,8.664026856422424316e-01,8.664695620536804199e-01,8.666418790817260742e-01,8.668044209480285645e-01,8.669636845588684082e-01,8.670639395713806152e-01,8.672594428062438965e-01,8.674394488334655762e-01,8.676679730415344238e-01,8.678290843963623047e-01,8.681809306144714355e-01,8.685259819030761719e-01,8.689104318618774414e-01,8.691895008087158203e-01,8.695735335350036621e-01,8.699290752410888672e-01,8.703167438507080078e-01,8.706097006797790527e-01,8.711186051368713379e-01,8.716241121292114258e-01,8.721698522567749023e-01,8.725848793983459473e-01,8.731357455253601074e-01,8.736525177955627441e-01,8.741403222084045410e-01,8.745011091232299805e-01,8.751407265663146973e-01,8.757498264312744141e-01,8.763030171394348145e-01,8.767128586769104004e-01,8.772211670875549316e-01,8.776008486747741699e-01,8.778245449066162109e-01,8.779718279838562012e-01,8.781434893608093262e-01,8.782032728195190430e-01,8.781763315200805664e-01,8.781365752220153809e-01,8.779276013374328613e-01,8.776363730430603027e-01,8.771808743476867676e-01,8.768209218978881836e-01,8.760282993316650391e-01,8.752057552337646484e-01,8.742529153823852539e-01,8.734903335571289062e-01,8.724261522293090820e-01,8.713603615760803223e-01,8.700352311134338379e-01,8.690063953399658203e-01,8.673086166381835938e-01,8.655409216880798340e-01,8.634331822395324707e-01,8.618811368942260742e-01,8.598957657814025879e-01,8.578816056251525879e-01,8.557605147361755371e-01,8.541138172149658203e-01,8.520169854164123535e-01,8.496904373168945312e-01,8.470181822776794434e-01,8.450476527214050293e-01,8.432962298393249512e-01,8.412593007087707520e-01
