1.335272789001464844e+00,1.336218118667602539e+00,1.337503075599670410e+00,1.338169932365417480e+00,1.338993549346923828e+00,1.340134620666503906e+00,1.340930938720703125e+00,1.341508626937866211e+00,1.342407464981079102e+00,1.343242645263671875e+00,1.344153761863708496e+00,1.344854116439819336e+00,1.345597505569458008e+00,1.346365928649902344e+00,1.347243547439575195e+00,1.347906470298767090e+00,1.348732113838195801e+00,1.349280238151550293e+00,1.350078940391540527e+00,1.350525736808776855e+00,1.351297616958618164e+00,1.352022528648376465e+00,1.352703332901000977e+00,1.353219866752624512e+00,1.353898406028747559e+00,1.354578256607055664e+00,1.355312228202819824e+00,1.356029748916625977e+00,1.356730937957763672e+00,1.357129335403442383e+00,1.357888102531433105e+00,1.358322381973266602e+00,1.358861327171325684e+00,1.359541177749633789e+00,1.360113024711608887e+00,1.360586285591125488e+00,1.361129164695739746e+00,1.361832141876220703e+00,1.362446904182434082e+00,1.362837672233581543e+00,1.363308787345886230e+00,1.363976120948791504e+00,1.364507079124450684e+00,1.364994406700134277e+00,1.365561604499816895e+00,1.366169333457946777e+00,1.366397500038146973e+00,1.366747021675109863e+00,1.367043495178222656e+00,1.367401123046875000e+00,1.367690563201904297e+00,1.367913484573364258e+00,1.368278384208679199e+00,1.368461370468139648e+00,1.368685841560363770e+00,1.369004726409912109e+00,1.369352698326110840e+00,1.369404673576354980e+00,1.369796752929687500e+00,1.370019197463989258e+00,1.370099425315856934e+00,1.370446801185607910e+00,1.370431900024414062e+00,1.370472311973571777e+00,1.370700120925903320e+00,1.370556116104125977e+00,1.370643258094787598e+00,1.370779395103454590e+00,1.370680093765258789e+00,1.370650291442871094e+00,1.370736122131347656e+00,1.370766878128051758e+00,1.370832085609436035e+00,1.370780467987060547e+00,1.370722293853759766e+00,1.370707392692565918e+00,1.370552420616149902e+00,1.370499849319458008e+00,1.370287895202636719e+00,1.370347261428833008e+00,1.370004534721374512e+00,1.369806408882141113e+00,1.369621992111206055e+00,1.369472026824951172e+00,1.369184136390686035e+00,1.368911385536193848e+00,1.368729591369628906e+00,1.368493676185607910e+00,1.368111133575439453e+00,1.367746949195861816e+00,1.367353796958923340e+00,1.367096900939941406e+00,1.366683244705200195e+00,1.366239070892333984e+00,1.365765690803527832e+00,1.365188241004943848e+00,1.364671111106872559e+00,1.364161491394042969e+00,1.363504290580749512e+00,1.363160967826843262e+00,1.362361669540405273e+00,1.361677408218383789e+00,1.360885024070739746e+00,1.360279440879821777e+00,1.359496951103210449e+00,1.358868479728698730e+00,1.358028531074523926e+00,1.357496380805969238e+00,1.356743216514587402e+00,1.355759620666503906e+00,1.355137467384338379e+00,1.354266881942749023e+00,1.353533148765563965e+00,1.352709174156188965e+00,1.351775169372558594e+00,1.351382017135620117e+00,1.350362181663513184e+00,1.349526643753051758e+00,1.348633885383605957e+00
1.336949706077575684e+00,1.337915062904357910e+00,1.339118361473083496e+00,1.339870929718017578e+00,1.340879201889038086e+00,1.341689705848693848e+00,1.342552781105041504e+00,1.343229770660400391e+00,1.344188451766967773e+00,1.344915747642517090e+00,1.345761537551879883e+00,1.346346974372863770e+00,1.347328186035156250e+00,1.348102211952209473e+00,1.348837494850158691e+00,1.349547743797302246e+00,1.350345015525817871e+00,1.351002931594848633e+00,1.351807594299316406e+00,1.352262973785400391e+00,1.352912425994873047e+00,1.353518247604370117e+00,1.354215741157531738e+00,1.354843139648437500e+00,1.355604171752929688e+00,1.356092095375061035e+00,1.356804609298706055e+00,1.357289910316467285e+00,1.358096599578857422e+00,1.358733177185058594e+00,1.359466433525085449e+00,1.359873294830322266e+00,1.360560774803161621e+00,1.361198544502258301e+00,1.361986637115478516e+00,1.362426042556762695e+00,1.363003969192504883e+00,1.363475441932678223e+00,1.364165306091308594e+00,1.364537596702575684e+00,1.365290641784667969e+00,1.365552186965942383e+00,1.366389513015747070e+00,1.366762876510620117e+00,1.367452025413513184e+00,1.367825150489807129e+00,1.368250370025634766e+00,1.368530988693237305e+00,1.368873238563537598e+00,1.369199991226196289e+00,1.369493484497070312e+00,1.369667768478393555e+00,1.369939684867858887e+00,1.370274424552917480e+00,1.370457649230957031e+00,1.370672702789306641e+00,1.370841741561889648e+00,1.371269464492797852e+00,1.371521234512329102e+00,1.371762633323669434e+00,1.371991872787475586e+00,1.372193574905395508e+00,1.372303843498229980e+00,1.372247934341430664e+00,1.372293114662170410e+00,1.372493743896484375e+00,1.372581601142883301e+00,1.372564554214477539e+00,1.372681379318237305e+00,1.372567772865295410e+00,1.372678995132446289e+00,1.372582674026489258e+00,1.372556447982788086e+00,1.372545599937438965e+00,1.372457027435302734e+00,1.372499346733093262e+00,1.372476100921630859e+00,1.372309207916259766e+00,1.372195720672607422e+00,1.372125506401062012e+00,1.371963977813720703e+00,1.371819257736206055e+00,1.371555328369140625e+00,1.371269941329956055e+00,1.371029853820800781e+00,1.370852470397949219e+00,1.370425939559936523e+00,1.370047688484191895e+00,1.369969725608825684e+00,1.369538187980651855e+00,1.369116902351379395e+00,1.369049429893493652e+00,1.368561744689941406e+00,1.368075489997863770e+00,1.367492556571960449e+00,1.367245078086853027e+00,1.366654634475708008e+00,1.366180539131164551e+00,1.365480065345764160e+00,1.364906787872314453e+00,1.364231944084167480e+00,1.363378763198852539e+00,1.362793803215026855e+00,1.362340927124023438e+00,1.361560106277465820e+00,1.360958337783813477e+00,1.359997510910034180e+00,1.359319925308227539e+00,1.358502149581909180e+00,1.357563853263854980e+00,1.356712937355041504e+00,1.356062531471252441e+00,1.355152249336242676e+00,1.354460000991821289e+00,1.353719472885131836e+00,1.353162050247192383e+00,1.352323412895202637e+00,1.351295113563537598e+00,1.350475668907165527e+00
1.340237855911254883e+00,1.341128230094909668e+00,1.342135190963745117e+00,1.342986226081848145e+00,1.343879938125610352e+00,1.344685792922973633e+00,1.345383644104003906e+00,1.346120715141296387e+00,1.347079157829284668e+00,1.347954392433166504e+00,1.348707199096679688e+00,1.349329113960266113e+00,1.350016713142395020e+00,1.350811719894409180e+00,1.351591587066650391e+00,1.352088689804077148e+00,1.352814555168151855e+00,1.353382945060729980e+00,1.354138731956481934e+00,1.354566693305969238e+00,1.355233550071716309e+00,1.356058120727539062e+00,1.356634497642517090e+00,1.357115626335144043e+00,1.357842445373535156e+00,1.358596920967102051e+00,1.359170794486999512e+00,1.359774112701416016e+00,1.360297441482543945e+00,1.360903143882751465e+00,1.361628055572509766e+00,1.362147092819213867e+00,1.362785458564758301e+00,1.363496422767639160e+00,1.364058852195739746e+00,1.364434361457824707e+00,1.365140080451965332e+00,1.365696787834167480e+00,1.366283893585205078e+00,1.366726756095886230e+00,1.367368102073669434e+00,1.367888927459716797e+00,1.368397474288940430e+00,1.368845224380493164e+00,1.369312047958374023e+00,1.369807243347167969e+00,1.370242953300476074e+00,1.370549678802490234e+00,1.370872735977172852e+00,1.371217131614685059e+00,1.371462583541870117e+00,1.371642708778381348e+00,1.371905088424682617e+00,1.372147560119628906e+00,1.372489333152770996e+00,1.372727632522583008e+00,1.372995972633361816e+00,1.373197436332702637e+00,1.373328804969787598e+00,1.373684406280517578e+00,1.373756051063537598e+00,1.373801112174987793e+00,1.373924612998962402e+00,1.374097347259521484e+00,1.374030470848083496e+00,1.374068021774291992e+00,1.374273061752319336e+00,1.374346256256103516e+00,1.374301671981811523e+00,1.374287605285644531e+00,1.374354720115661621e+00,1.374450683593750000e+00,1.374496340751647949e+00,1.374300718307495117e+00,1.374274015426635742e+00,1.374203801155090332e+00,1.374147653579711914e+00,1.374078512191772461e+00,1.373970746994018555e+00,1.373844623565673828e+00,1.373688936233520508e+00,1.373399376869201660e+00,1.373254537582397461e+00,1.373024940490722656e+00,1.372847318649291992e+00,1.372743725776672363e+00,1.372567772865295410e+00,1.372098088264465332e+00,1.371934294700622559e+00,1.371706128120422363e+00,1.371290802955627441e+00,1.370870351791381836e+00,1.370615243911743164e+00,1.370245575904846191e+00,1.369747281074523926e+00,1.369217038154602051e+00,1.368785381317138672e+00,1.368297219276428223e+00,1.367924213409423828e+00,1.367257952690124512e+00,1.366701722145080566e+00,1.366010069847106934e+00,1.365224361419677734e+00,1.364524960517883301e+00,1.363886237144470215e+00,1.363118529319763184e+00,1.362558960914611816e+00,1.361702322959899902e+00,1.361024379730224609e+00,1.360093474388122559e+00,1.359138131141662598e+00,1.358423113822937012e+00,1.357566475868225098e+00,1.356939554214477539e+00,1.356168627738952637e+00,1.355558276176452637e+00,1.354781389236450195e+00,1.353929042816162109e+00,1.353178501129150391e+00
1.340557813644409180e+00,1.341400980949401855e+00,1.342610120773315430e+00,1.343053340911865234e+00,1.344174861907958984e+00,1.344898223876953125e+00,1.345843195915222168e+00,1.346420049667358398e+00,1.347389578819274902e+00,1.348071932792663574e+00,1.348868012428283691e+00,1.349466919898986816e+00,1.350311279296875000e+00,1.351022362709045410e+00,1.351736545562744141e+00,1.352144241333007812e+00,1.352943181991577148e+00,1.353341102600097656e+00,1.354219317436218262e+00,1.354599356651306152e+00,1.355276107788085938e+00,1.355765223503112793e+00,1.356513977050781250e+00,1.357007384300231934e+00,1.357637643814086914e+00,1.358210682868957520e+00,1.358860492706298828e+00,1.359373211860656738e+00,1.360208868980407715e+00,1.360631585121154785e+00,1.361310362815856934e+00,1.361802339553833008e+00,1.362481355667114258e+00,1.362992644309997559e+00,1.363598585128784180e+00,1.363947272300720215e+00,1.364680647850036621e+00,1.365015864372253418e+00,1.365796446800231934e+00,1.366090178489685059e+00,1.366688847541809082e+00,1.367128610610961914e+00,1.367782831192016602e+00,1.368248224258422852e+00,1.368707537651062012e+00,1.369020819664001465e+00,1.369310498237609863e+00,1.369644999504089355e+00,1.369944453239440918e+00,1.370158910751342773e+00,1.370509147644042969e+00,1.370726585388183594e+00,1.371073246002197266e+00,1.371250867843627930e+00,1.371523737907409668e+00,1.371637821197509766e+00,1.371872663497924805e+00,1.372264385223388672e+00,1.372448682785034180e+00,1.372524976730346680e+00,1.372756481170654297e+00,1.372721672058105469e+00,1.372869968414306641e+00,1.373001933097839355e+00,1.373158097267150879e+00,1.373130917549133301e+00,1.373229861259460449e+00,1.373234748840332031e+00,1.373194932937622070e+00,1.373257637023925781e+00,1.373296976089477539e+00,1.373289346694946289e+00,1.373301029205322266e+00,1.373354434967041016e+00,1.373197913169860840e+00,1.373238444328308105e+00,1.373240232467651367e+00,1.373143672943115234e+00,1.372984886169433594e+00,1.372714519500732422e+00,1.372624754905700684e+00,1.372377157211303711e+00,1.372266888618469238e+00,1.372236490249633789e+00,1.371857404708862305e+00,1.371698379516601562e+00,1.371459603309631348e+00,1.371234178543090820e+00,1.370923876762390137e+00,1.370798945426940918e+00,1.370407342910766602e+00,1.370249032974243164e+00,1.369832158088684082e+00,1.369424819946289062e+00,1.368899464607238770e+00,1.368599891662597656e+00,1.368026733398437500e+00,1.367637038230895996e+00,1.367113828659057617e+00,1.366674900054931641e+00,1.365849375724792480e+00,1.365214228630065918e+00,1.364674448966979980e+00,1.364149212837219238e+00,1.363474488258361816e+00,1.362806558609008789e+00,1.362052202224731445e+00,1.361585021018981934e+00,1.360683560371398926e+00,1.359975099563598633e+00,1.358879566192626953e+00,1.358279466629028320e+00,1.357509255409240723e+00,1.356986284255981445e+00,1.356120109558105469e+00,1.355665564537048340e+00,1.354551553726196289e+00,1.353945970535278320e+00,1.353137969970703125e+00
1.341303467750549316e+00,1.342249512672424316e+00,1.343241095542907715e+00,1.343940377235412598e+00,1.344836473464965820e+00,1.345686078071594238e+00,1.346514940261840820e+00,1.347020983695983887e+00,1.347814559936523438e+00,1.348583579063415527e+00,1.349202513694763184e+00,1.349763989448547363e+00,1.350521087646484375e+00,1.351144552230834961e+00,1.351785659790039062e+00,1.352235317230224609e+00,1.353027105331420898e+00,1.353526711463928223e+00,1.354111552238464355e+00,1.354701042175292969e+00,1.355174183845520020e+00,1.355890631675720215e+00,1.356397271156311035e+00,1.356955885887145996e+00,1.357539176940917969e+00,1.358115434646606445e+00,1.358697772026062012e+00,1.359211325645446777e+00,1.359859824180603027e+00,1.360399723052978516e+00,1.360890746116638184e+00,1.361327767372131348e+00,1.361957192420959473e+00,1.362445354461669922e+00,1.362978458404541016e+00,1.363455176353454590e+00,1.363907337188720703e+00,1.364465951919555664e+00,1.364921092987060547e+00,1.365464687347412109e+00,1.365921854972839355e+00,1.366412758827209473e+00,1.366970181465148926e+00,1.367246508598327637e+00,1.367587327957153320e+00,1.368131160736083984e+00,1.368415713310241699e+00,1.368713498115539551e+00,1.369000434875488281e+00,1.369256854057312012e+00,1.369504094123840332e+00,1.369779944419860840e+00,1.370055556297302246e+00,1.370133876800537109e+00,1.370554089546203613e+00,1.370620250701904297e+00,1.370761871337890625e+00,1.371119618415832520e+00,1.371291279792785645e+00,1.371451497077941895e+00,1.371674537658691406e+00,1.371608972549438477e+00,1.371830582618713379e+00,1.371926307678222656e+00,1.372128486633300781e+00,1.372232317924499512e+00,1.372182965278625488e+00,1.372368335723876953e+00,1.372286796569824219e+00,1.372214794158935547e+00,1.372262001037597656e+00,1.372296452522277832e+00,1.372284412384033203e+00,1.372248530387878418e+00,1.372274279594421387e+00,1.372264862060546875e+00,1.372128129005432129e+00,1.371947407722473145e+00,1.371934294700622559e+00,1.371699333190917969e+00,1.371608018875122070e+00,1.371490120887756348e+00,1.371355175971984863e+00,1.371289968490600586e+00,1.370949625968933105e+00,1.370702028274536133e+00,1.370374798774719238e+00,1.370166659355163574e+00,1.370013713836669922e+00,1.369721531867980957e+00,1.369379639625549316e+00,1.369316935539245605e+00,1.369072318077087402e+00,1.368552803993225098e+00,1.368097662925720215e+00,1.367548465728759766e+00,1.367244839668273926e+00,1.366615533828735352e+00,1.366327166557312012e+00,1.365963459014892578e+00,1.365411400794982910e+00,1.364788413047790527e+00,1.364243507385253906e+00,1.363681197166442871e+00,1.362920165061950684e+00,1.362293839454650879e+00,1.361611247062683105e+00,1.360973834991455078e+00,1.360325455665588379e+00,1.359521865844726562e+00,1.358850717544555664e+00,1.358119606971740723e+00,1.357393026351928711e+00,1.356658101081848145e+00,1.356120705604553223e+00,1.355566263198852539e+00,1.354853510856628418e+00,1.354099750518798828e+00,1.353333115577697754e+00
1.339753866195678711e+00,1.340668082237243652e+00,1.341564893722534180e+00,1.342007875442504883e+00,1.342978000640869141e+00,1.343854784965515137e+00,1.344633817672729492e+00,1.345166325569152832e+00,1.346036553382873535e+00,1.346751213073730469e+00,1.347341537475585938e+00,1.347874760627746582e+00,1.348614931106567383e+00,1.349223375320434570e+00,1.349894642829895020e+00,1.350182294845581055e+00,1.350983262062072754e+00,1.351601958274841309e+00,1.351970076560974121e+00,1.352653503417968750e+00,1.353154897689819336e+00,1.353717207908630371e+00,1.354189395904541016e+00,1.354476213455200195e+00,1.355282187461853027e+00,1.355705022811889648e+00,1.356375098228454590e+00,1.356851935386657715e+00,1.357402801513671875e+00,1.358029603958129883e+00,1.358430385589599609e+00,1.358971714973449707e+00,1.359358429908752441e+00,1.359840750694274902e+00,1.360208153724670410e+00,1.360738515853881836e+00,1.361201167106628418e+00,1.361732482910156250e+00,1.362125158309936523e+00,1.362434864044189453e+00,1.362926721572875977e+00,1.363475918769836426e+00,1.363851428031921387e+00,1.364253997802734375e+00,1.364717125892639160e+00,1.365134954452514648e+00,1.365421891212463379e+00,1.365581393241882324e+00,1.365897536277770996e+00,1.366232037544250488e+00,1.366500973701477051e+00,1.366700530052185059e+00,1.366932868957519531e+00,1.367090344429016113e+00,1.367513418197631836e+00,1.367644906044006348e+00,1.367914199829101562e+00,1.368206739425659180e+00,1.368273615837097168e+00,1.368456721305847168e+00,1.368622183799743652e+00,1.368577718734741211e+00,1.368688464164733887e+00,1.368777513504028320e+00,1.368916034698486328e+00,1.368944287300109863e+00,1.368908166885375977e+00,1.369044542312622070e+00,1.369357347488403320e+00,1.369278311729431152e+00,1.369186282157897949e+00,1.369191646575927734e+00,1.369183421134948730e+00,1.369173169136047363e+00,1.369179248809814453e+00,1.369149804115295410e+00,1.369063854217529297e+00,1.369059324264526367e+00,1.368813157081604004e+00,1.368830084800720215e+00,1.368455648422241211e+00,1.368414521217346191e+00,1.368307232856750488e+00,1.368084907531738281e+00,1.367940783500671387e+00,1.367668032646179199e+00,1.367510318756103516e+00,1.367243409156799316e+00,1.367109775543212891e+00,1.366845250129699707e+00,1.366587877273559570e+00,1.366362333297729492e+00,1.366024971008300781e+00,1.365572571754455566e+00,1.365173697471618652e+00,1.364713907241821289e+00,1.364235758781433105e+00,1.363942146301269531e+00,1.363397598266601562e+00,1.363143682479858398e+00,1.362601041793823242e+00,1.361931085586547852e+00,1.361319303512573242e+00,1.360797047615051270e+00,1.360169410705566406e+00,1.359831094741821289e+00,1.359182596206665039e+00,1.358627796173095703e+00,1.357904791831970215e+00,1.357118010520935059e+00,1.356547236442565918e+00,1.355900406837463379e+00,1.355155587196350098e+00,1.354504823684692383e+00,1.353967666625976562e+00,1.353387832641601562e+00,1.352773189544677734e+00,1.351972818374633789e+00,1.351410031318664551e+00
1.338672995567321777e+00,1.339378952980041504e+00,1.340281486511230469e+00,1.340807080268859863e+00,1.341357827186584473e+00,1.342282056808471680e+00,1.342910766601562500e+00,1.343414187431335449e+00,1.344184160232543945e+00,1.344712734222412109e+00,1.345274329185485840e+00,1.345908522605895996e+00,1.346443533897399902e+00,1.347254395484924316e+00,1.347687363624572754e+00,1.348001718521118164e+00,1.348701953887939453e+00,1.349170923233032227e+00,1.349728107452392578e+00,1.350150346755981445e+00,1.350673079490661621e+00,1.351323008537292480e+00,1.351673126220703125e+00,1.352220535278320312e+00,1.352690577507019043e+00,1.353376507759094238e+00,1.353875875473022461e+00,1.354273676872253418e+00,1.354716300964355469e+00,1.355348467826843262e+00,1.355700850486755371e+00,1.356176018714904785e+00,1.356525897979736328e+00,1.357141613960266113e+00,1.357471108436584473e+00,1.357932567596435547e+00,1.358410596847534180e+00,1.358753204345703125e+00,1.359277367591857910e+00,1.359596252441406250e+00,1.359959721565246582e+00,1.360433697700500488e+00,1.360820531845092773e+00,1.361226439476013184e+00,1.361528158187866211e+00,1.361880660057067871e+00,1.362195849418640137e+00,1.362548947334289551e+00,1.362600564956665039e+00,1.362959384918212891e+00,1.363212466239929199e+00,1.363574147224426270e+00,1.363611698150634766e+00,1.364071965217590332e+00,1.364194750785827637e+00,1.364278793334960938e+00,1.364539265632629395e+00,1.364754438400268555e+00,1.364988207817077637e+00,1.365058779716491699e+00,1.365176200866699219e+00,1.365408062934875488e+00,1.365599155426025391e+00,1.365633726119995117e+00,1.365705847740173340e+00,1.365698575973510742e+00,1.365797638893127441e+00,1.365750074386596680e+00,1.365753054618835449e+00,1.365855455398559570e+00,1.365896582603454590e+00,1.365899443626403809e+00,1.365890502929687500e+00,1.365842819213867188e+00,1.365877509117126465e+00,1.365830063819885254e+00,1.365805625915527344e+00,1.365640521049499512e+00,1.365573644638061523e+00,1.365467309951782227e+00,1.365247011184692383e+00,1.365076422691345215e+00,1.365028023719787598e+00,1.364874958992004395e+00,1.364637494087219238e+00,1.364265084266662598e+00,1.364287853240966797e+00,1.364081978797912598e+00,1.363730311393737793e+00,1.363397955894470215e+00,1.363439679145812988e+00,1.363156557083129883e+00,1.362975358963012695e+00,1.362301945686340332e+00,1.362047791481018066e+00,1.361698627471923828e+00,1.361288070678710938e+00,1.360926985740661621e+00,1.360626459121704102e+00,1.360217332839965820e+00,1.359683513641357422e+00,1.359139680862426758e+00,1.358681082725524902e+00,1.358223676681518555e+00,1.357501506805419922e+00,1.357091426849365234e+00,1.356478691101074219e+00,1.356048226356506348e+00,1.355425000190734863e+00,1.354838132858276367e+00,1.354001402854919434e+00,1.353407144546508789e+00,1.352790117263793945e+00,1.352348327636718750e+00,1.351709723472595215e+00,1.351236343383789062e+00,1.350744843482971191e+00,1.350005626678466797e+00,1.349301218986511230e+00
1.337368965148925781e+00,1.337998390197753906e+00,1.339008808135986328e+00,1.339573979377746582e+00,1.340234875679016113e+00,1.340901970863342285e+00,1.341656088829040527e+00,1.342004418373107910e+00,1.342806339263916016e+00,1.343442082405090332e+00,1.343985915184020996e+00,1.344368100166320801e+00,1.344968080520629883e+00,1.345425963401794434e+00,1.346083998680114746e+00,1.346451759338378906e+00,1.346911311149597168e+00,1.347278833389282227e+00,1.347831606864929199e+00,1.348130822181701660e+00,1.348596572875976562e+00,1.349017143249511719e+00,1.349593400955200195e+00,1.349935531616210938e+00,1.350410699844360352e+00,1.350807309150695801e+00,1.351501345634460449e+00,1.351814746856689453e+00,1.352323174476623535e+00,1.352675557136535645e+00,1.353236198425292969e+00,1.353560090065002441e+00,1.354025125503540039e+00,1.354262709617614746e+00,1.354895353317260742e+00,1.355035543441772461e+00,1.355478048324584961e+00,1.355956912040710449e+00,1.356394052505493164e+00,1.356773972511291504e+00,1.357054829597473145e+00,1.357611894607543945e+00,1.358048915863037109e+00,1.358285784721374512e+00,1.358690261840820312e+00,1.358966827392578125e+00,1.359222412109375000e+00,1.359478235244750977e+00,1.359822273254394531e+00,1.360145807266235352e+00,1.360339283943176270e+00,1.360304355621337891e+00,1.360681772232055664e+00,1.360808134078979492e+00,1.361107468605041504e+00,1.361202239990234375e+00,1.361412405967712402e+00,1.361612081527709961e+00,1.361914038658142090e+00,1.362021088600158691e+00,1.362057685852050781e+00,1.362286686897277832e+00,1.362307667732238770e+00,1.362446308135986328e+00,1.362593531608581543e+00,1.362662792205810547e+00,1.362623214721679688e+00,1.362812399864196777e+00,1.362755179405212402e+00,1.362810492515563965e+00,1.362813234329223633e+00,1.362801551818847656e+00,1.362794637680053711e+00,1.362778306007385254e+00,1.362808942794799805e+00,1.362771272659301758e+00,1.362791776657104492e+00,1.362687230110168457e+00,1.362620592117309570e+00,1.362448334693908691e+00,1.362332820892333984e+00,1.362052202224731445e+00,1.361959218978881836e+00,1.361970305442810059e+00,1.361723303794860840e+00,1.361507415771484375e+00,1.361172318458557129e+00,1.361173510551452637e+00,1.360972523689270020e+00,1.360733151435852051e+00,1.360427498817443848e+00,1.360215306282043457e+00,1.359907627105712891e+00,1.359594941139221191e+00,1.359083533287048340e+00,1.358859300613403320e+00,1.358492493629455566e+00,1.358155488967895508e+00,1.357840180397033691e+00,1.357595920562744141e+00,1.357222557067871094e+00,1.356490492820739746e+00,1.355840921401977539e+00,1.355324745178222656e+00,1.354944109916687012e+00,1.354503154754638672e+00,1.354019999504089355e+00,1.353557825088500977e+00,1.352865695953369141e+00,1.352205157279968262e+00,1.351744174957275391e+00,1.351131319999694824e+00,1.350371360778808594e+00,1.349884986877441406e+00,1.349367141723632812e+00,1.348980069160461426e+00,1.348286271095275879e+00,1.347673535346984863e+00,1.347108483314514160e+00
1.334867596626281738e+00,1.335477828979492188e+00,1.336315870285034180e+00,1.336859464645385742e+00,1.337594151496887207e+00,1.338388085365295410e+00,1.338868618011474609e+00,1.339514493942260742e+00,1.340024590492248535e+00,1.340594291687011719e+00,1.341404795646667480e+00,1.341878414154052734e+00,1.342371940612792969e+00,1.342909812927246094e+00,1.343378186225891113e+00,1.343964219093322754e+00,1.344332218170166016e+00,1.344663977622985840e+00,1.345113873481750488e+00,1.345607876777648926e+00,1.345820069313049316e+00,1.346518158912658691e+00,1.346774935722351074e+00,1.347061872482299805e+00,1.347629189491271973e+00,1.348079442977905273e+00,1.348610520362854004e+00,1.348880410194396973e+00,1.349185228347778320e+00,1.349700212478637695e+00,1.350084781646728516e+00,1.350382089614868164e+00,1.350852727890014648e+00,1.351209044456481934e+00,1.351484894752502441e+00,1.351827621459960938e+00,1.352181553840637207e+00,1.352750778198242188e+00,1.353059291839599609e+00,1.353437185287475586e+00,1.353772997856140137e+00,1.354153156280517578e+00,1.354588270187377930e+00,1.355024814605712891e+00,1.355192065238952637e+00,1.355601429939270020e+00,1.355887413024902344e+00,1.356122255325317383e+00,1.356328010559082031e+00,1.356629848480224609e+00,1.357039332389831543e+00,1.357077240943908691e+00,1.357406616210937500e+00,1.357627034187316895e+00,1.357694149017333984e+00,1.357938885688781738e+00,1.358085393905639648e+00,1.358357191085815430e+00,1.358533859252929688e+00,1.358688473701477051e+00,1.358832836151123047e+00,1.358988761901855469e+00,1.359100818634033203e+00,1.359135270118713379e+00,1.359206080436706543e+00,1.359297871589660645e+00,1.359182238578796387e+00,1.359366059303283691e+00,1.359370946884155273e+00,1.359337925910949707e+00,1.359368801116943359e+00,1.359369158744812012e+00,1.359374165534973145e+00,1.359491825103759766e+00,1.359477162361145020e+00,1.359525918960571289e+00,1.359442949295043945e+00,1.359270215034484863e+00,1.359141707420349121e+00,1.358951091766357422e+00,1.358870744705200195e+00,1.358726978302001953e+00,1.358657479286193848e+00,1.358547925949096680e+00,1.358410358428955078e+00,1.358285069465637207e+00,1.358023524284362793e+00,1.357798337936401367e+00,1.357736229896545410e+00,1.357449054718017578e+00,1.357300043106079102e+00,1.357122778892517090e+00,1.356820821762084961e+00,1.356434583663940430e+00,1.356088519096374512e+00,1.355628252029418945e+00,1.355439543724060059e+00,1.355119585990905762e+00,1.354721546173095703e+00,1.354486823081970215e+00,1.354105353355407715e+00,1.353385090827941895e+00,1.353127598762512207e+00,1.352377772331237793e+00,1.351794004440307617e+00,1.351369857788085938e+00,1.350880622863769531e+00,1.350367426872253418e+00,1.349913835525512695e+00,1.349254965782165527e+00,1.348691701889038086e+00,1.348253965377807617e+00,1.347738265991210938e+00,1.347232699394226074e+00,1.346754908561706543e+00,1.346386551856994629e+00,1.345828175544738770e+00,1.345030665397644043e+00,1.344540476799011230e+00
1.333831667900085449e+00,1.334493517875671387e+00,1.335465073585510254e+00,1.335807919502258301e+00,1.336720585823059082e+00,1.337378621101379395e+00,1.337986588478088379e+00,1.338431835174560547e+00,1.339272022247314453e+00,1.339732289314270020e+00,1.340336441993713379e+00,1.340883970260620117e+00,1.341435432434082031e+00,1.341890811920166016e+00,1.342412233352661133e+00,1.342881798744201660e+00,1.343257546424865723e+00,1.343470931053161621e+00,1.343952775001525879e+00,1.344231128692626953e+00,1.344801545143127441e+00,1.345310211181640625e+00,1.345633745193481445e+00,1.346072316169738770e+00,1.346482396125793457e+00,1.346759080886840820e+00,1.347274303436279297e+00,1.347532272338867188e+00,1.347944140434265137e+00,1.348471522331237793e+00,1.348856568336486816e+00,1.349100112915039062e+00,1.349439382553100586e+00,1.349814295768737793e+00,1.350103735923767090e+00,1.350332617759704590e+00,1.350689172744750977e+00,1.351207613945007324e+00,1.351481676101684570e+00,1.351637840270996094e+00,1.352091073989868164e+00,1.352483630180358887e+00,1.352815985679626465e+00,1.353175520896911621e+00,1.353378653526306152e+00,1.353629708290100098e+00,1.353847503662109375e+00,1.354030370712280273e+00,1.354546904563903809e+00,1.354806423187255859e+00,1.354932308197021484e+00,1.355003476142883301e+00,1.355194330215454102e+00,1.355567455291748047e+00,1.355586051940917969e+00,1.355883836746215820e+00,1.355967640876770020e+00,1.356310009956359863e+00,1.356340765953063965e+00,1.356604695320129395e+00,1.356597542762756348e+00,1.356607079505920410e+00,1.356804966926574707e+00,1.356951951980590820e+00,1.356972932815551758e+00,1.357100009918212891e+00,1.357229113578796387e+00,1.357229709625244141e+00,1.357289075851440430e+00,1.357282996177673340e+00,1.357349872589111328e+00,1.357312202453613281e+00,1.357393860816955566e+00,1.357332944869995117e+00,1.357280254364013672e+00,1.357267856597900391e+00,1.357168316841125488e+00,1.357190251350402832e+00,1.356991291046142578e+00,1.356953859329223633e+00,1.356834292411804199e+00,1.356658458709716797e+00,1.356569528579711914e+00,1.356555223464965820e+00,1.356217741966247559e+00,1.356138586997985840e+00,1.355883479118347168e+00,1.355663776397705078e+00,1.355611562728881836e+00,1.355330348014831543e+00,1.355075716972351074e+00,1.354984402656555176e+00,1.354695439338684082e+00,1.354423284530639648e+00,1.353972196578979492e+00,1.353750824928283691e+00,1.353266835212707520e+00,1.353202581405639648e+00,1.352894663810729980e+00,1.352474093437194824e+00,1.352146029472351074e+00,1.351569414138793945e+00,1.351068615913391113e+00,1.350661754608154297e+00,1.350166320800781250e+00,1.349841952323913574e+00,1.349502205848693848e+00,1.349097371101379395e+00,1.348392844200134277e+00,1.347851157188415527e+00,1.347338438034057617e+00,1.346907019615173340e+00,1.346244692802429199e+00,1.345962882041931152e+00,1.345501899719238281e+00,1.345178008079528809e+00,1.344692111015319824e+00,1.344047069549560547e+00,1.343476891517639160e+00
1.331474781036376953e+00,1.332155942916870117e+00,1.333138227462768555e+00,1.333605051040649414e+00,1.334221005439758301e+00,1.335061311721801758e+00,1.335751056671142578e+00,1.336049914360046387e+00,1.336755156517028809e+00,1.337342381477355957e+00,1.337888360023498535e+00,1.338365793228149414e+00,1.339065909385681152e+00,1.339676856994628906e+00,1.340129137039184570e+00,1.340455412864685059e+00,1.340988874435424805e+00,1.341174125671386719e+00,1.341663956642150879e+00,1.341923713684082031e+00,1.342384338378906250e+00,1.342946410179138184e+00,1.343342542648315430e+00,1.343633770942687988e+00,1.344092011451721191e+00,1.344467520713806152e+00,1.344850540161132812e+00,1.345130920410156250e+00,1.345492124557495117e+00,1.345970273017883301e+00,1.346176981925964355e+00,1.346497654914855957e+00,1.346760511398315430e+00,1.347107052803039551e+00,1.347410440444946289e+00,1.347664356231689453e+00,1.347944378852844238e+00,1.348253369331359863e+00,1.348678112030029297e+00,1.348835110664367676e+00,1.349121451377868652e+00,1.349455356597900391e+00,1.349812865257263184e+00,1.350091338157653809e+00,1.350425958633422852e+00,1.350557565689086914e+00,1.350828647613525391e+00,1.351068139076232910e+00,1.351313710212707520e+00,1.351505160331726074e+00,1.351721525192260742e+00,1.351852059364318848e+00,1.352079868316650391e+00,1.352294802665710449e+00,1.352452516555786133e+00,1.352638840675354004e+00,1.352828025817871094e+00,1.353010654449462891e+00,1.353152871131896973e+00,1.353206396102905273e+00,1.353478550910949707e+00,1.353709459304809570e+00,1.353665471076965332e+00,1.353888750076293945e+00,1.353778958320617676e+00,1.353704810142517090e+00,1.353847861289978027e+00,1.353960990905761719e+00,1.353854298591613770e+00,1.353889346122741699e+00,1.353919506072998047e+00,1.353993535041809082e+00,1.354077339172363281e+00,1.354253888130187988e+00,1.354242324829101562e+00,1.354296207427978516e+00,1.354086995124816895e+00,1.353915572166442871e+00,1.353773117065429688e+00,1.353755235671997070e+00,1.353568196296691895e+00,1.353477239608764648e+00,1.353394508361816406e+00,1.353291630744934082e+00,1.353136420249938965e+00,1.352935075759887695e+00,1.352849364280700684e+00,1.352692842483520508e+00,1.352395057678222656e+00,1.352324962615966797e+00,1.352048277854919434e+00,1.351892352104187012e+00,1.351683855056762695e+00,1.351360797882080078e+00,1.351032972335815430e+00,1.350637674331665039e+00,1.350418329238891602e+00,1.350051164627075195e+00,1.349872946739196777e+00,1.349589824676513672e+00,1.349160909652709961e+00,1.348679304122924805e+00,1.348086476325988770e+00,1.347907662391662598e+00,1.347368359565734863e+00,1.347115874290466309e+00,1.346729993820190430e+00,1.346361398696899414e+00,1.345783352851867676e+00,1.345285058021545410e+00,1.344699501991271973e+00,1.344234228134155273e+00,1.343884825706481934e+00,1.343507647514343262e+00,1.343026399612426758e+00,1.342640280723571777e+00,1.342180490493774414e+00,1.341597914695739746e+00,1.341040849685668945e+00
1.330019474029541016e+00,1.330743312835693359e+00,1.331563830375671387e+00,1.332261800765991211e+00,1.332736372947692871e+00,1.333515524864196777e+00,1.334475636482238770e+00,1.334810376167297363e+00,1.335510373115539551e+00,1.335980772972106934e+00,1.336795926094055176e+00,1.337220668792724609e+00,1.337683439254760742e+00,1.338340759277343750e+00,1.338842391967773438e+00,1.339163422584533691e+00,1.339579582214355469e+00,1.339972019195556641e+00,1.340343713760375977e+00,1.340661168098449707e+00,1.341070294380187988e+00,1.341432809829711914e+00,1.341867446899414062e+00,1.342218995094299316e+00,1.342419505119323730e+00,1.342906355857849121e+00,1.343188881874084473e+00,1.343520164489746094e+00,1.343891382217407227e+00,1.344365835189819336e+00,1.344654202461242676e+00,1.344951987266540527e+00,1.345182538032531738e+00,1.345571637153625488e+00,1.345884084701538086e+00,1.346106410026550293e+00,1.346353054046630859e+00,1.346649885177612305e+00,1.346994519233703613e+00,1.347245693206787109e+00,1.347509741783142090e+00,1.347731947898864746e+00,1.348084092140197754e+00,1.348351478576660156e+00,1.348513960838317871e+00,1.348870754241943359e+00,1.348996281623840332e+00,1.349229097366333008e+00,1.349452376365661621e+00,1.349725365638732910e+00,1.349776983261108398e+00,1.350061297416687012e+00,1.350225687026977539e+00,1.350497007369995117e+00,1.350560784339904785e+00,1.350667357444763184e+00,1.350978851318359375e+00,1.351146101951599121e+00,1.351247549057006836e+00,1.351355075836181641e+00,1.351443052291870117e+00,1.351501345634460449e+00,1.351721525192260742e+00,1.351683020591735840e+00,1.351818323135375977e+00,1.351833224296569824e+00,1.352020978927612305e+00,1.352106809616088867e+00,1.352014183998107910e+00,1.352108955383300781e+00,1.352063179016113281e+00,1.352146267890930176e+00,1.352047204971313477e+00,1.351998090744018555e+00,1.352017045021057129e+00,1.352075815200805664e+00,1.351851105690002441e+00,1.351982116699218750e+00,1.351928472518920898e+00,1.351787686347961426e+00,1.351606011390686035e+00,1.351585268974304199e+00,1.351437568664550781e+00,1.351366162300109863e+00,1.351211905479431152e+00,1.351002931594848633e+00,1.350701451301574707e+00,1.350714921951293945e+00,1.350502490997314453e+00,1.350256443023681641e+00,1.350116014480590820e+00,1.349855184555053711e+00,1.349681735038757324e+00,1.349361658096313477e+00,1.349151492118835449e+00,1.348678708076477051e+00,1.348528623580932617e+00,1.348153710365295410e+00,1.347920417785644531e+00,1.347699522972106934e+00,1.347258448600769043e+00,1.346970319747924805e+00,1.346539616584777832e+00,1.346139192581176758e+00,1.345745444297790527e+00,1.345234990119934082e+00,1.344926595687866211e+00,1.344591140747070312e+00,1.344225287437438965e+00,1.343577861785888672e+00,1.343076229095458984e+00,1.342648148536682129e+00,1.342013478279113770e+00,1.341898798942565918e+00,1.341365218162536621e+00,1.340891838073730469e+00,1.340573787689208984e+00,1.339852809906005859e+00,1.339425802230834961e+00
1.328173995018005371e+00,1.328661084175109863e+00,1.329610466957092285e+00,1.330061316490173340e+00,1.330961585044860840e+00,1.331612348556518555e+00,1.332410097122192383e+00,1.332873702049255371e+00,1.333494663238525391e+00,1.333989977836608887e+00,1.334770321846008301e+00,1.335208773612976074e+00,1.335798740386962891e+00,1.336433053016662598e+00,1.336942434310913086e+00,1.337295532226562500e+00,1.337661743164062500e+00,1.338157653808593750e+00,1.338456273078918457e+00,1.338750243186950684e+00,1.339356899261474609e+00,1.339666008949279785e+00,1.340054512023925781e+00,1.340533018112182617e+00,1.340738296508789062e+00,1.341053366661071777e+00,1.341627717018127441e+00,1.341796159744262695e+00,1.342302680015563965e+00,1.342800498008728027e+00,1.343153119087219238e+00,1.343360304832458496e+00,1.343604922294616699e+00,1.343930244445800781e+00,1.344253420829772949e+00,1.344442248344421387e+00,1.344689369201660156e+00,1.345058917999267578e+00,1.345397949218750000e+00,1.345530748367309570e+00,1.345837950706481934e+00,1.346166133880615234e+00,1.346371769905090332e+00,1.346670746803283691e+00,1.347006201744079590e+00,1.347097039222717285e+00,1.347217798233032227e+00,1.347509980201721191e+00,1.347850084304809570e+00,1.347976207733154297e+00,1.348019361495971680e+00,1.348397016525268555e+00,1.348636031150817871e+00,1.348637342453002930e+00,1.349113821983337402e+00,1.349056839942932129e+00,1.349311590194702148e+00,1.349569320678710938e+00,1.349596381187438965e+00,1.349762082099914551e+00,1.350064277648925781e+00,1.350195646286010742e+00,1.350082159042358398e+00,1.350199222564697266e+00,1.350280880928039551e+00,1.350240826606750488e+00,1.350332617759704590e+00,1.350396513938903809e+00,1.350392222404479980e+00,1.350474238395690918e+00,1.350476622581481934e+00,1.350557208061218262e+00,1.350671291351318359e+00,1.350566625595092773e+00,1.350586414337158203e+00,1.350604414939880371e+00,1.350472211837768555e+00,1.350319981575012207e+00,1.350235342979431152e+00,1.350117802619934082e+00,1.350015878677368164e+00,1.349883794784545898e+00,1.349764347076416016e+00,1.349655747413635254e+00,1.349568963050842285e+00,1.349365949630737305e+00,1.349343895912170410e+00,1.349078536033630371e+00,1.348855376243591309e+00,1.348839759826660156e+00,1.348523974418640137e+00,1.348468661308288574e+00,1.348301529884338379e+00,1.347762346267700195e+00,1.347388386726379395e+00,1.347359061241149902e+00,1.346957206726074219e+00,1.346826553344726562e+00,1.346452116966247559e+00,1.346202850341796875e+00,1.345749139785766602e+00,1.345417737960815430e+00,1.344935297966003418e+00,1.344606995582580566e+00,1.344291329383850098e+00,1.344072818756103516e+00,1.343542575836181641e+00,1.343219280242919922e+00,1.342684864997863770e+00,1.342225551605224609e+00,1.341548204421997070e+00,1.341286301612854004e+00,1.340666055679321289e+00,1.340269207954406738e+00,1.339792132377624512e+00,1.339511036872863770e+00,1.338810324668884277e+00,1.338282108306884766e+00,1.337665915489196777e+00
1.326742529869079590e+00,1.327290654182434082e+00,1.328047752380371094e+00,1.328715085983276367e+00,1.329562306404113770e+00,1.330227494239807129e+00,1.331038117408752441e+00,1.331701159477233887e+00,1.332164645195007324e+00,1.332871675491333008e+00,1.333669185638427734e+00,1.333977818489074707e+00,1.334698081016540527e+00,1.335025191307067871e+00,1.335678100585937500e+00,1.336020827293395996e+00,1.336539626121520996e+00,1.336913108825683594e+00,1.337311506271362305e+00,1.337619900703430176e+00,1.337976932525634766e+00,1.338443398475646973e+00,1.338958024978637695e+00,1.339138269424438477e+00,1.339641332626342773e+00,1.339950084686279297e+00,1.340193986892700195e+00,1.340587615966796875e+00,1.340904951095581055e+00,1.341264128684997559e+00,1.341547131538391113e+00,1.341962933540344238e+00,1.342377662658691406e+00,1.342417716979980469e+00,1.342894315719604492e+00,1.343090295791625977e+00,1.343351244926452637e+00,1.343551993370056152e+00,1.343946933746337891e+00,1.344082951545715332e+00,1.344498634338378906e+00,1.344824194908142090e+00,1.345102429389953613e+00,1.345387697219848633e+00,1.345590949058532715e+00,1.345886707305908203e+00,1.346036911010742188e+00,1.346168160438537598e+00,1.346436262130737305e+00,1.346592426300048828e+00,1.346765875816345215e+00,1.347001314163208008e+00,1.347208976745605469e+00,1.347264170646667480e+00,1.347511649131774902e+00,1.347670316696166992e+00,1.347841501235961914e+00,1.348078250885009766e+00,1.348242163658142090e+00,1.348319768905639648e+00,1.348373174667358398e+00,1.348513484001159668e+00,1.348714828491210938e+00,1.348621368408203125e+00,1.348668456077575684e+00,1.348825693130493164e+00,1.348811864852905273e+00,1.348915696144104004e+00,1.348988890647888184e+00,1.348919510841369629e+00,1.348899841308593750e+00,1.348916292190551758e+00,1.348946690559387207e+00,1.348935365676879883e+00,1.349004149436950684e+00,1.348993301391601562e+00,1.348949790000915527e+00,1.348736763000488281e+00,1.348727822303771973e+00,1.348564028739929199e+00,1.348596930503845215e+00,1.348400235176086426e+00,1.348298907279968262e+00,1.348248720169067383e+00,1.348236799240112305e+00,1.347821593284606934e+00,1.347698569297790527e+00,1.347539782524108887e+00,1.347425460815429688e+00,1.347207427024841309e+00,1.347126245498657227e+00,1.346939802169799805e+00,1.346591711044311523e+00,1.346218466758728027e+00,1.345995783805847168e+00,1.345724225044250488e+00,1.345479846000671387e+00,1.345225214958190918e+00,1.344991683959960938e+00,1.344584465026855469e+00,1.344510555267333984e+00,1.344084024429321289e+00,1.343569993972778320e+00,1.343155384063720703e+00,1.342743039131164551e+00,1.342332601547241211e+00,1.341887354850769043e+00,1.341777920722961426e+00,1.341102719306945801e+00,1.340684652328491211e+00,1.340093851089477539e+00,1.339749455451965332e+00,1.339234590530395508e+00,1.338859081268310547e+00,1.338487505912780762e+00,1.338133573532104492e+00,1.337559819221496582e+00,1.336833477020263672e+00,1.336302638053894043e+00
1.324720025062561035e+00,1.325413107872009277e+00,1.326187610626220703e+00,1.326606035232543945e+00,1.327707767486572266e+00,1.328403949737548828e+00,1.329113483428955078e+00,1.329570770263671875e+00,1.330489873886108398e+00,1.330799460411071777e+00,1.331722378730773926e+00,1.332346558570861816e+00,1.332906484603881836e+00,1.333454012870788574e+00,1.333909034729003906e+00,1.334374904632568359e+00,1.334970951080322266e+00,1.335253834724426270e+00,1.335703015327453613e+00,1.336017966270446777e+00,1.336573243141174316e+00,1.336973309516906738e+00,1.337304592132568359e+00,1.337606787681579590e+00,1.337943673133850098e+00,1.338400006294250488e+00,1.338677644729614258e+00,1.338844299316406250e+00,1.339493989944458008e+00,1.339955925941467285e+00,1.340253591537475586e+00,1.340557813644409180e+00,1.340746164321899414e+00,1.340955138206481934e+00,1.341301918029785156e+00,1.341565728187561035e+00,1.341793894767761230e+00,1.342196226119995117e+00,1.342311859130859375e+00,1.342631936073303223e+00,1.342891097068786621e+00,1.343309283256530762e+00,1.343562126159667969e+00,1.343844056129455566e+00,1.344038724899291992e+00,1.344198107719421387e+00,1.344560146331787109e+00,1.344853401184082031e+00,1.344950199127197266e+00,1.345205307006835938e+00,1.345366716384887695e+00,1.345551490783691406e+00,1.345739603042602539e+00,1.345869541168212891e+00,1.345969319343566895e+00,1.346099019050598145e+00,1.346275091171264648e+00,1.346431970596313477e+00,1.346729993820190430e+00,1.346900343894958496e+00,1.346972703933715820e+00,1.346911907196044922e+00,1.347080230712890625e+00,1.347145795822143555e+00,1.347148418426513672e+00,1.347295761108398438e+00,1.347439646720886230e+00,1.347275853157043457e+00,1.347456812858581543e+00,1.347428560256958008e+00,1.347419142723083496e+00,1.347423434257507324e+00,1.347439646720886230e+00,1.347378969192504883e+00,1.347444415092468262e+00,1.347389221191406250e+00,1.347374796867370605e+00,1.347234249114990234e+00,1.347162127494812012e+00,1.347237706184387207e+00,1.346890687942504883e+00,1.346908688545227051e+00,1.346838712692260742e+00,1.346662640571594238e+00,1.346633791923522949e+00,1.346437335014343262e+00,1.346141815185546875e+00,1.346130132675170898e+00,1.345752358436584473e+00,1.345814824104309082e+00,1.345405459403991699e+00,1.345355153083801270e+00,1.345029115676879883e+00,1.344706773757934570e+00,1.344602823257446289e+00,1.344281435012817383e+00,1.343881011009216309e+00,1.343858003616333008e+00,1.343464851379394531e+00,1.343357205390930176e+00,1.342919468879699707e+00,1.342431664466857910e+00,1.342127084732055664e+00,1.341788887977600098e+00,1.341171503067016602e+00,1.340927720069885254e+00,1.340645670890808105e+00,1.340193629264831543e+00,1.339572787284851074e+00,1.339033246040344238e+00,1.338650941848754883e+00,1.338260293006896973e+00,1.337689757347106934e+00,1.337383389472961426e+00,1.336914777755737305e+00,1.336550951004028320e+00,1.335646986961364746e+00,1.335250973701477051e+00,1.334400296211242676e+00
1.323429942131042480e+00,1.323958277702331543e+00,1.324736237525939941e+00,1.325058221817016602e+00,1.326044082641601562e+00,1.327126026153564453e+00,1.327839016914367676e+00,1.328236460685729980e+00,1.329239249229431152e+00,1.329828381538391113e+00,1.330452203750610352e+00,1.331079244613647461e+00,1.331749916076660156e+00,1.332371830940246582e+00,1.332835674285888672e+00,1.333102226257324219e+00,1.333813667297363281e+00,1.334044337272644043e+00,1.334604144096374512e+00,1.334866523742675781e+00,1.335328698158264160e+00,1.335743188858032227e+00,1.336168169975280762e+00,1.336414694786071777e+00,1.336841702461242676e+00,1.337146759033203125e+00,1.337551355361938477e+00,1.337813854217529297e+00,1.338139295578002930e+00,1.338481664657592773e+00,1.338947534561157227e+00,1.339129328727722168e+00,1.339525699615478516e+00,1.339664816856384277e+00,1.339871525764465332e+00,1.340192556381225586e+00,1.340303778648376465e+00,1.340635180473327637e+00,1.340852737426757812e+00,1.341001152992248535e+00,1.341519594192504883e+00,1.341721892356872559e+00,1.342232823371887207e+00,1.342443346977233887e+00,1.342713475227355957e+00,1.342888832092285156e+00,1.343032836914062500e+00,1.343167781829833984e+00,1.343569159507751465e+00,1.343510746955871582e+00,1.343851566314697266e+00,1.344058513641357422e+00,1.344354748725891113e+00,1.344316005706787109e+00,1.344599723815917969e+00,1.344677090644836426e+00,1.344769716262817383e+00,1.345028758049011230e+00,1.345084190368652344e+00,1.345241427421569824e+00,1.345560431480407715e+00,1.345641374588012695e+00,1.345641732215881348e+00,1.345756173133850098e+00,1.345831751823425293e+00,1.345868945121765137e+00,1.346021056175231934e+00,1.346081852912902832e+00,1.346015334129333496e+00,1.346097588539123535e+00,1.346058011054992676e+00,1.346060633659362793e+00,1.346044898033142090e+00,1.346024274826049805e+00,1.346018314361572266e+00,1.346039175987243652e+00,1.346018075942993164e+00,1.345956087112426758e+00,1.345742821693420410e+00,1.345780611038208008e+00,1.345619916915893555e+00,1.345641970634460449e+00,1.345432877540588379e+00,1.345414400100708008e+00,1.345132231712341309e+00,1.345025777816772461e+00,1.344806432723999023e+00,1.344785094261169434e+00,1.344475746154785156e+00,1.344388723373413086e+00,1.344174504280090332e+00,1.343985676765441895e+00,1.343678355216979980e+00,1.343325495719909668e+00,1.343068599700927734e+00,1.342964768409729004e+00,1.342586040496826172e+00,1.342383742332458496e+00,1.342013478279113770e+00,1.341935634613037109e+00,1.341491341590881348e+00,1.340998053550720215e+00,1.340507864952087402e+00,1.340271830558776855e+00,1.339812517166137695e+00,1.339491486549377441e+00,1.339022755622863770e+00,1.338773608207702637e+00,1.338228225708007812e+00,1.337758779525756836e+00,1.336983203887939453e+00,1.336933493614196777e+00,1.336221575736999512e+00,1.335887074470520020e+00,1.335316300392150879e+00,1.335126399993896484e+00,1.334336519241333008e+00,1.333905816078186035e+00,1.333140134811401367e+00
1.321136713027954102e+00,1.321861624717712402e+00,1.322561502456665039e+00,1.323058605194091797e+00,1.323984026908874512e+00,1.324775815010070801e+00,1.325608611106872559e+00,1.326039195060729980e+00,1.327115654945373535e+00,1.327602028846740723e+00,1.328441143035888672e+00,1.328998327255249023e+00,1.329652667045593262e+00,1.330234169960021973e+00,1.330993294715881348e+00,1.331303834915161133e+00,1.331825494766235352e+00,1.332287311553955078e+00,1.332808852195739746e+00,1.332943439483642578e+00,1.333564877510070801e+00,1.333955407142639160e+00,1.334448337554931641e+00,1.334720969200134277e+00,1.335039258003234863e+00,1.335314393043518066e+00,1.335903882980346680e+00,1.336043596267700195e+00,1.336557269096374512e+00,1.336916923522949219e+00,1.337174057960510254e+00,1.337374448776245117e+00,1.337727308273315430e+00,1.337910532951354980e+00,1.338322520256042480e+00,1.338467955589294434e+00,1.338755846023559570e+00,1.339056491851806641e+00,1.339440107345581055e+00,1.339527368545532227e+00,1.339779853820800781e+00,1.340117096900939941e+00,1.340328931808471680e+00,1.340695023536682129e+00,1.340826988220214844e+00,1.340991735458374023e+00,1.341273188591003418e+00,1.341440081596374512e+00,1.341880321502685547e+00,1.342107653617858887e+00,1.342152357101440430e+00,1.342482566833496094e+00,1.342576861381530762e+00,1.342864155769348145e+00,1.343045473098754883e+00,1.343124747276306152e+00,1.343325495719909668e+00,1.343505024909973145e+00,1.343746542930603027e+00,1.343811988830566406e+00,1.343968033790588379e+00,1.344037413597106934e+00,1.344168424606323242e+00,1.344310998916625977e+00,1.344418048858642578e+00,1.344526767730712891e+00,1.344610452651977539e+00,1.344606041908264160e+00,1.344749212265014648e+00,1.344699025154113770e+00,1.344735980033874512e+00,1.344733238220214844e+00,1.344718575477600098e+00,1.344703793525695801e+00,1.344712734222412109e+00,1.344724655151367188e+00,1.344704031944274902e+00,1.344656229019165039e+00,1.344520568847656250e+00,1.344364643096923828e+00,1.344257473945617676e+00,1.344165444374084473e+00,1.344157814979553223e+00,1.344073891639709473e+00,1.343908548355102539e+00,1.343699693679809570e+00,1.343369483947753906e+00,1.343260049819946289e+00,1.343013763427734375e+00,1.342782497406005859e+00,1.342722892761230469e+00,1.342575788497924805e+00,1.342217922210693359e+00,1.341828107833862305e+00,1.341349124908447266e+00,1.341243386268615723e+00,1.341001152992248535e+00,1.340650200843811035e+00,1.340385079383850098e+00,1.340142726898193359e+00,1.339841246604919434e+00,1.339427709579467773e+00,1.338962435722351074e+00,1.338629245758056641e+00,1.338117122650146484e+00,1.337941288948059082e+00,1.337429642677307129e+00,1.337130069732666016e+00,1.336415648460388184e+00,1.336040377616882324e+00,1.335399866104125977e+00,1.334990382194519043e+00,1.334355831146240234e+00,1.333987593650817871e+00,1.333415031433105469e+00,1.333219051361083984e+00,1.332398533821105957e+00,1.331947088241577148e+00,1.331118345260620117e+00
1.319468498229980469e+00,1.320166230201721191e+00,1.321110486984252930e+00,1.321576595306396484e+00,1.322268486022949219e+00,1.323013067245483398e+00,1.323961853981018066e+00,1.324378848075866699e+00,1.325560450553894043e+00,1.326130509376525879e+00,1.327065348625183105e+00,1.327537894248962402e+00,1.328379750251770020e+00,1.328877687454223633e+00,1.329652309417724609e+00,1.329996347427368164e+00,1.330695152282714844e+00,1.331035256385803223e+00,1.331577897071838379e+00,1.331922173500061035e+00,1.332347512245178223e+00,1.332778453826904297e+00,1.333383560180664062e+00,1.333646655082702637e+00,1.334091424942016602e+00,1.334275603294372559e+00,1.334890842437744141e+00,1.335172057151794434e+00,1.335449576377868652e+00,1.335903882980346680e+00,1.336339950561523438e+00,1.336507916450500488e+00,1.336850047111511230e+00,1.337057828903198242e+00,1.337278366088867188e+00,1.337571740150451660e+00,1.337726235389709473e+00,1.338009834289550781e+00,1.338325858116149902e+00,1.338671803474426270e+00,1.338723778724670410e+00,1.338996291160583496e+00,1.339399099349975586e+00,1.339676856994628906e+00,1.339879751205444336e+00,1.339955687522888184e+00,1.340321183204650879e+00,1.340501070022583008e+00,1.340663075447082520e+00,1.340649247169494629e+00,1.341015815734863281e+00,1.341082096099853516e+00,1.341418981552124023e+00,1.341406702995300293e+00,1.341661930084228516e+00,1.341889262199401855e+00,1.341893911361694336e+00,1.342111945152282715e+00,1.342265725135803223e+00,1.342420339584350586e+00,1.342593312263488770e+00,1.342819452285766602e+00,1.342945218086242676e+00,1.343073844909667969e+00,1.343095779418945312e+00,1.343105912208557129e+00,1.343232989311218262e+00,1.343312501907348633e+00,1.343379616737365723e+00,1.343387126922607422e+00,1.343464374542236328e+00,1.343469619750976562e+00,1.343406319618225098e+00,1.343474149703979492e+00,1.343383908271789551e+00,1.343384027481079102e+00,1.343348383903503418e+00,1.343235373497009277e+00,1.343125820159912109e+00,1.343036651611328125e+00,1.342856407165527344e+00,1.342810988426208496e+00,1.342710018157958984e+00,1.342655301094055176e+00,1.342514872550964355e+00,1.342225551605224609e+00,1.342137813568115234e+00,1.341898798942565918e+00,1.341597437858581543e+00,1.341568112373352051e+00,1.341365814208984375e+00,1.341209411621093750e+00,1.340800285339355469e+00,1.340429663658142090e+00,1.340270638465881348e+00,1.339989185333251953e+00,1.339759707450866699e+00,1.339579582214355469e+00,1.339142680168151855e+00,1.339012026786804199e+00,1.338520169258117676e+00,1.338118314743041992e+00,1.337567210197448730e+00,1.337359905242919922e+00,1.336897015571594238e+00,1.336467623710632324e+00,1.335946083068847656e+00,1.335665822029113770e+00,1.335129618644714355e+00,1.334715485572814941e+00,1.334032416343688965e+00,1.333816528320312500e+00,1.333164691925048828e+00,1.332684993743896484e+00,1.332131266593933105e+00,1.331861972808837891e+00,1.331176161766052246e+00,1.330382823944091797e+00,1.329712271690368652e+00
1.317152619361877441e+00,1.317798972129821777e+00,1.318781018257141113e+00,1.319379806518554688e+00,1.320052027702331543e+00,1.320844531059265137e+00,1.321695923805236816e+00,1.322181463241577148e+00,1.323294162750244141e+00,1.323956370353698730e+00,1.324769973754882812e+00,1.325582504272460938e+00,1.326308965682983398e+00,1.326995134353637695e+00,1.327690839767456055e+00,1.328106760978698730e+00,1.328824877738952637e+00,1.329103350639343262e+00,1.329698920249938965e+00,1.329985380172729492e+00,1.330731868743896484e+00,1.331058502197265625e+00,1.331714510917663574e+00,1.331886887550354004e+00,1.332344889640808105e+00,1.332781434059143066e+00,1.333370327949523926e+00,1.333587646484375000e+00,1.334001183509826660e+00,1.334274888038635254e+00,1.334805965423583984e+00,1.334932804107666016e+00,1.335344314575195312e+00,1.335678339004516602e+00,1.336049914360046387e+00,1.336091279983520508e+00,1.336435198783874512e+00,1.336681842803955078e+00,1.337210178375244141e+00,1.337167024612426758e+00,1.337515830993652344e+00,1.337772250175476074e+00,1.338148713111877441e+00,1.338190078735351562e+00,1.338494658470153809e+00,1.338801264762878418e+00,1.338897109031677246e+00,1.339060187339782715e+00,1.339403867721557617e+00,1.339544534683227539e+00,1.339687228202819824e+00,1.339865446090698242e+00,1.340099334716796875e+00,1.340314745903015137e+00,1.340480089187622070e+00,1.340542078018188477e+00,1.340679407119750977e+00,1.341005444526672363e+00,1.341235518455505371e+00,1.341131448745727539e+00,1.341306447982788086e+00,1.341430187225341797e+00,1.341458678245544434e+00,1.341710805892944336e+00,1.341768622398376465e+00,1.341869354248046875e+00,1.341911315917968750e+00,1.342055082321166992e+00,1.342060565948486328e+00,1.342091321945190430e+00,1.342012643814086914e+00,1.342004179954528809e+00,1.342011690139770508e+00,1.342042803764343262e+00,1.341975808143615723e+00,1.342103481292724609e+00,1.341954350471496582e+00,1.341893196105957031e+00,1.341827750205993652e+00,1.341668963432312012e+00,1.341524958610534668e+00,1.341535925865173340e+00,1.341449618339538574e+00,1.341355085372924805e+00,1.341196775436401367e+00,1.341076970100402832e+00,1.340690732002258301e+00,1.340542078018188477e+00,1.340205907821655273e+00,1.340214848518371582e+00,1.340155005455017090e+00,1.340009331703186035e+00,1.339617609977722168e+00,1.339174032211303711e+00,1.338873744010925293e+00,1.338521242141723633e+00,1.338325858116149902e+00,1.338218331336975098e+00,1.337780594825744629e+00,1.337504506111145020e+00,1.337114095687866211e+00,1.336846709251403809e+00,1.336274027824401855e+00,1.336041331291198730e+00,1.335623025894165039e+00,1.335318207740783691e+00,1.334626317024230957e+00,1.334425926208496094e+00,1.333825707435607910e+00,1.333264827728271484e+00,1.332547068595886230e+00,1.332166075706481934e+00,1.331577897071838379e+00,1.331210970878601074e+00,1.330387830734252930e+00,1.330280780792236328e+00,1.329491615295410156e+00,1.328676700592041016e+00,1.327937126159667969e+00
1.315124392509460449e+00,1.316027283668518066e+00,1.317025303840637207e+00,1.317587256431579590e+00,1.318503618240356445e+00,1.319309711456298828e+00,1.319967150688171387e+00,1.320443868637084961e+00,1.321609139442443848e+00,1.322265863418579102e+00,1.323083400726318359e+00,1.323671698570251465e+00,1.324733376502990723e+00,1.325350999832153320e+00,1.326172232627868652e+00,1.326543807983398438e+00,1.327202558517456055e+00,1.327851533889770508e+00,1.328436374664306641e+00,1.328843116760253906e+00,1.329379320144653320e+00,1.329910635948181152e+00,1.330406069755554199e+00,1.330705165863037109e+00,1.331243395805358887e+00,1.331630945205688477e+00,1.332173585891723633e+00,1.332446813583374023e+00,1.332961678504943848e+00,1.333329677581787109e+00,1.333858251571655273e+00,1.334043502807617188e+00,1.334525942802429199e+00,1.334607362747192383e+00,1.334998130798339844e+00,1.335172295570373535e+00,1.335441231727600098e+00,1.335761547088623047e+00,1.336133360862731934e+00,1.336286067962646484e+00,1.336585998535156250e+00,1.336699247360229492e+00,1.337049007415771484e+00,1.337230920791625977e+00,1.337577462196350098e+00,1.337718725204467773e+00,1.337923765182495117e+00,1.338221430778503418e+00,1.338360905647277832e+00,1.338485240936279297e+00,1.338667750358581543e+00,1.338818669319152832e+00,1.339039206504821777e+00,1.339189052581787109e+00,1.339303493499755859e+00,1.339470744132995605e+00,1.339668631553649902e+00,1.339764356613159180e+00,1.340041637420654297e+00,1.340156555175781250e+00,1.340176701545715332e+00,1.340256571769714355e+00,1.340433478355407715e+00,1.340427517890930176e+00,1.340577840805053711e+00,1.340517520904541016e+00,1.340591430664062500e+00,1.340790987014770508e+00,1.340741395950317383e+00,1.340799212455749512e+00,1.340825676918029785e+00,1.340807557106018066e+00,1.340832829475402832e+00,1.340771913528442383e+00,1.340775847434997559e+00,1.340714454650878906e+00,1.340747356414794922e+00,1.340469956398010254e+00,1.340407729148864746e+00,1.340424060821533203e+00,1.340247631072998047e+00,1.340214014053344727e+00,1.340147137641906738e+00,1.340028882026672363e+00,1.339878439903259277e+00,1.339709639549255371e+00,1.339406251907348633e+00,1.339336156845092773e+00,1.339140057563781738e+00,1.339017033576965332e+00,1.338790297508239746e+00,1.338659644126892090e+00,1.338370680809020996e+00,1.338043212890625000e+00,1.337621688842773438e+00,1.337528347969055176e+00,1.337090730667114258e+00,1.337069511413574219e+00,1.336634874343872070e+00,1.336556196212768555e+00,1.336017727851867676e+00,1.335711240768432617e+00,1.335140466690063477e+00,1.334963083267211914e+00,1.334461688995361328e+00,1.334095835685729980e+00,1.333470702171325684e+00,1.333138227462768555e+00,1.332618474960327148e+00,1.331967115402221680e+00,1.331319093704223633e+00,1.330950498580932617e+00,1.330335378646850586e+00,1.329804539680480957e+00,1.329190492630004883e+00,1.328816175460815430e+00,1.327955126762390137e+00,1.327101349830627441e+00,1.326152682304382324e+00
1.313083171844482422e+00,1.313873648643493652e+00,1.314993500709533691e+00,1.315582871437072754e+00,1.316340088844299316e+00,1.317170381546020508e+00,1.317955613136291504e+00,1.318445563316345215e+00,1.319417119026184082e+00,1.320019245147705078e+00,1.321043372154235840e+00,1.321619987487792969e+00,1.322363972663879395e+00,1.323270797729492188e+00,1.323874711990356445e+00,1.324525952339172363e+00,1.325422048568725586e+00,1.325755953788757324e+00,1.326525211334228516e+00,1.326907515525817871e+00,1.327427387237548828e+00,1.327934265136718750e+00,1.328479290008544922e+00,1.328744888305664062e+00,1.329487204551696777e+00,1.329853534698486328e+00,1.330379128456115723e+00,1.330755949020385742e+00,1.331163048744201660e+00,1.331585288047790527e+00,1.332131862640380859e+00,1.332289218902587891e+00,1.332769870758056641e+00,1.332978487014770508e+00,1.333606243133544922e+00,1.333624720573425293e+00,1.333958864212036133e+00,1.334399700164794922e+00,1.334638595581054688e+00,1.334821581840515137e+00,1.335161089897155762e+00,1.335360288619995117e+00,1.335610270500183105e+00,1.335905551910400391e+00,1.336181879043579102e+00,1.336382746696472168e+00,1.336580395698547363e+00,1.336863636970520020e+00,1.337177038192749023e+00,1.337217092514038086e+00,1.337387919425964355e+00,1.337475657463073730e+00,1.337790131568908691e+00,1.337990999221801758e+00,1.338118910789489746e+00,1.338312268257141113e+00,1.338469386100769043e+00,1.338614106178283691e+00,1.338670969009399414e+00,1.338876962661743164e+00,1.339015483856201172e+00,1.339089035987854004e+00,1.339177966117858887e+00,1.339228153228759766e+00,1.339209318161010742e+00,1.339457511901855469e+00,1.339447855949401855e+00,1.339454174041748047e+00,1.339712381362915039e+00,1.339540839195251465e+00,1.339572548866271973e+00,1.339562177658081055e+00,1.339548468589782715e+00,1.339539647102355957e+00,1.339511275291442871e+00,1.339514493942260742e+00,1.339370965957641602e+00,1.339350461959838867e+00,1.339193820953369141e+00,1.339117050170898438e+00,1.338986992835998535e+00,1.339091181755065918e+00,1.338996052742004395e+00,1.338850975036621094e+00,1.338666319847106934e+00,1.338436841964721680e+00,1.338130593299865723e+00,1.337940454483032227e+00,1.337748050689697266e+00,1.337766528129577637e+00,1.337555408477783203e+00,1.337364912033081055e+00,1.337031006813049316e+00,1.336651444435119629e+00,1.336365222930908203e+00,1.336225032806396484e+00,1.335820913314819336e+00,1.335663557052612305e+00,1.335384964942932129e+00,1.335051536560058594e+00,1.334645986557006836e+00,1.334241032600402832e+00,1.333725690841674805e+00,1.333540558815002441e+00,1.332961678504943848e+00,1.332548856735229492e+00,1.331931948661804199e+00,1.331622242927551270e+00,1.330788254737854004e+00,1.330330133438110352e+00,1.329544067382812500e+00,1.329275608062744141e+00,1.328329086303710938e+00,1.327868103981018066e+00,1.326983571052551270e+00,1.326733231544494629e+00,1.325731992721557617e+00,1.324957966804504395e+00,1.323966264724731445e+00
1.310922145843505859e+00,1.311632394790649414e+00,1.312661528587341309e+00,1.313402652740478516e+00,1.314443588256835938e+00,1.315310955047607422e+00,1.316051483154296875e+00,1.316769361495971680e+00,1.317740440368652344e+00,1.318371891975402832e+00,1.319064021110534668e+00,1.319771647453308105e+00,1.320683360099792480e+00,1.321482419967651367e+00,1.322406768798828125e+00,1.322928547859191895e+00,1.323723316192626953e+00,1.324166417121887207e+00,1.324860215187072754e+00,1.325228333473205566e+00,1.325920462608337402e+00,1.326437115669250488e+00,1.326974153518676758e+00,1.327433586120605469e+00,1.328007102012634277e+00,1.328430891036987305e+00,1.329117655754089355e+00,1.329530715942382812e+00,1.330154538154602051e+00,1.330436468124389648e+00,1.331028938293457031e+00,1.331168293952941895e+00,1.331605553627014160e+00,1.331924080848693848e+00,1.332327485084533691e+00,1.332605838775634766e+00,1.333009004592895508e+00,1.333356380462646484e+00,1.333751797676086426e+00,1.333910703659057617e+00,1.334231495857238770e+00,1.334376215934753418e+00,1.334619283676147461e+00,1.335003137588500977e+00,1.335256218910217285e+00,1.335572123527526855e+00,1.335729479789733887e+00,1.335951566696166992e+00,1.336212873458862305e+00,1.336301684379577637e+00,1.336503863334655762e+00,1.336725234985351562e+00,1.336826562881469727e+00,1.337119340896606445e+00,1.337137818336486816e+00,1.337366819381713867e+00,1.337501168251037598e+00,1.337710857391357422e+00,1.337684631347656250e+00,1.337792754173278809e+00,1.338050127029418945e+00,1.338156580924987793e+00,1.338161706924438477e+00,1.338306665420532227e+00,1.338283061981201172e+00,1.338259696960449219e+00,1.338528156280517578e+00,1.338442921638488770e+00,1.338547587394714355e+00,1.338581323623657227e+00,1.338595986366271973e+00,1.338596582412719727e+00,1.338595628738403320e+00,1.338612914085388184e+00,1.338432192802429199e+00,1.338527441024780273e+00,1.338373899459838867e+00,1.338238477706909180e+00,1.338298201560974121e+00,1.338101625442504883e+00,1.337950348854064941e+00,1.337960004806518555e+00,1.337771415710449219e+00,1.337687730789184570e+00,1.337493658065795898e+00,1.337358355522155762e+00,1.337237358093261719e+00,1.337048649787902832e+00,1.336853623390197754e+00,1.336699247360229492e+00,1.336465954780578613e+00,1.336220145225524902e+00,1.335944890975952148e+00,1.335783004760742188e+00,1.335360884666442871e+00,1.334997534751892090e+00,1.334737777709960938e+00,1.334737777709960938e+00,1.334297180175781250e+00,1.333990573883056641e+00,1.333663105964660645e+00,1.333146691322326660e+00,1.332626342773437500e+00,1.332473278045654297e+00,1.331756711006164551e+00,1.331235885620117188e+00,1.330641627311706543e+00,1.330428600311279297e+00,1.329595327377319336e+00,1.328921079635620117e+00,1.327970981597900391e+00,1.327688217163085938e+00,1.326782941818237305e+00,1.326400399208068848e+00,1.325411558151245117e+00,1.325090169906616211e+00,1.323974967002868652e+00,1.323169469833374023e+00,1.322106957435607910e+00
1.308829069137573242e+00,1.309403896331787109e+00,1.310668110847473145e+00,1.311236262321472168e+00,1.312186837196350098e+00,1.313181400299072266e+00,1.314047574996948242e+00,1.314648389816284180e+00,1.315618872642517090e+00,1.316288948059082031e+00,1.317052602767944336e+00,1.317520856857299805e+00,1.318576812744140625e+00,1.319152235984802246e+00,1.320239782333374023e+00,1.320742964744567871e+00,1.321620106697082520e+00,1.322089195251464844e+00,1.322855353355407715e+00,1.323297977447509766e+00,1.323990702629089355e+00,1.324695229530334473e+00,1.325218558311462402e+00,1.325691938400268555e+00,1.326278567314147949e+00,1.326746344566345215e+00,1.327498197555541992e+00,1.327705144882202148e+00,1.328522562980651855e+00,1.328997731208801270e+00,1.329464316368103027e+00,1.329786419868469238e+00,1.330248475074768066e+00,1.330656170845031738e+00,1.331168889999389648e+00,1.331371903419494629e+00,1.331682443618774414e+00,1.332060456275939941e+00,1.332390427589416504e+00,1.332568287849426270e+00,1.333095192909240723e+00,1.333438277244567871e+00,1.333765387535095215e+00,1.333805203437805176e+00,1.334138631820678711e+00,1.334368824958801270e+00,1.334701299667358398e+00,1.334854364395141602e+00,1.335244536399841309e+00,1.335289239883422852e+00,1.335496544837951660e+00,1.335718154907226562e+00,1.335879683494567871e+00,1.336052060127258301e+00,1.336262226104736328e+00,1.336394071578979492e+00,1.336590647697448730e+00,1.336545348167419434e+00,1.336924076080322266e+00,1.336960554122924805e+00,1.337050795555114746e+00,1.337223887443542480e+00,1.337359309196472168e+00,1.337191104888916016e+00,1.337500572204589844e+00,1.337502598762512207e+00,1.337637662887573242e+00,1.337664961814880371e+00,1.337700366973876953e+00,1.337623357772827148e+00,1.337671399116516113e+00,1.337648272514343262e+00,1.337538003921508789e+00,1.337555170059204102e+00,1.337548017501831055e+00,1.337576985359191895e+00,1.337597608566284180e+00,1.337409973144531250e+00,1.337339043617248535e+00,1.337125897407531738e+00,1.337058782577514648e+00,1.336954951286315918e+00,1.336903333663940430e+00,1.336900949478149414e+00,1.336699247360229492e+00,1.336527347564697266e+00,1.336170554161071777e+00,1.336090207099914551e+00,1.335896611213684082e+00,1.335571169853210449e+00,1.335462450981140137e+00,1.335310220718383789e+00,1.334973573684692383e+00,1.334776520729064941e+00,1.334394335746765137e+00,1.334159255027770996e+00,1.333738923072814941e+00,1.333505272865295410e+00,1.333140373229980469e+00,1.333009600639343262e+00,1.332411050796508789e+00,1.332085728645324707e+00,1.331274271011352539e+00,1.331255316734313965e+00,1.330515265464782715e+00,1.329939484596252441e+00,1.329135775566101074e+00,1.328805923461914062e+00,1.328058004379272461e+00,1.327429413795471191e+00,1.326580286026000977e+00,1.326064586639404297e+00,1.324941635131835938e+00,1.324371337890625000e+00,1.323435068130493164e+00,1.322771430015563965e+00,1.321917891502380371e+00,1.320958733558654785e+00,1.319955229759216309e+00
1.307013034820556641e+00,1.307636260986328125e+00,1.308571338653564453e+00,1.309190750122070312e+00,1.310196280479431152e+00,1.311284899711608887e+00,1.312360763549804688e+00,1.312961578369140625e+00,1.313883185386657715e+00,1.314456701278686523e+00,1.315256357192993164e+00,1.315793871879577637e+00,1.316815257072448730e+00,1.317622542381286621e+00,1.318400740623474121e+00,1.318982124328613281e+00,1.319793939590454102e+00,1.320485234260559082e+00,1.321180224418640137e+00,1.321727037429809570e+00,1.322198510169982910e+00,1.323061466217041016e+00,1.323749303817749023e+00,1.324045538902282715e+00,1.324726939201354980e+00,1.325399994850158691e+00,1.326016664505004883e+00,1.326376795768737793e+00,1.327004194259643555e+00,1.327554821968078613e+00,1.328135490417480469e+00,1.328456163406372070e+00,1.328995943069458008e+00,1.329501152038574219e+00,1.329933762550354004e+00,1.330304861068725586e+00,1.330801963806152344e+00,1.331120014190673828e+00,1.331499338150024414e+00,1.331705093383789062e+00,1.332008242607116699e+00,1.332341670989990234e+00,1.332770943641662598e+00,1.333031415939331055e+00,1.333358645439147949e+00,1.333551526069641113e+00,1.333853721618652344e+00,1.333926320075988770e+00,1.334222078323364258e+00,1.334624409675598145e+00,1.334651350975036621e+00,1.334903001785278320e+00,1.335104346275329590e+00,1.335237264633178711e+00,1.335515141487121582e+00,1.335647225379943848e+00,1.335768103599548340e+00,1.335891366004943848e+00,1.335980176925659180e+00,1.336198806762695312e+00,1.336318135261535645e+00,1.336398005485534668e+00,1.336487293243408203e+00,1.336459755897521973e+00,1.336610436439514160e+00,1.336635351181030273e+00,1.336800932884216309e+00,1.336841940879821777e+00,1.336799740791320801e+00,1.336839318275451660e+00,1.336745858192443848e+00,1.336846947669982910e+00,1.336776971817016602e+00,1.336823344230651855e+00,1.336712956428527832e+00,1.336755156517028809e+00,1.336691975593566895e+00,1.336525678634643555e+00,1.336461067199707031e+00,1.336379289627075195e+00,1.336304426193237305e+00,1.336211800575256348e+00,1.335997223854064941e+00,1.335954785346984863e+00,1.335821986198425293e+00,1.335538029670715332e+00,1.335320115089416504e+00,1.335257172584533691e+00,1.335043072700500488e+00,1.334751844406127930e+00,1.334508538246154785e+00,1.334472417831420898e+00,1.334104537963867188e+00,1.333729624748229980e+00,1.333327651023864746e+00,1.333036541938781738e+00,1.332855105400085449e+00,1.332613587379455566e+00,1.332210898399353027e+00,1.332035303115844727e+00,1.331432461738586426e+00,1.330964207649230957e+00,1.330379128456115723e+00,1.330041289329528809e+00,1.329251050949096680e+00,1.328610301017761230e+00,1.327878952026367188e+00,1.327440142631530762e+00,1.326638221740722656e+00,1.325761079788208008e+00,1.324854493141174316e+00,1.324398875236511230e+00,1.323425769805908203e+00,1.322772026062011719e+00,1.321818113327026367e+00,1.321221828460693359e+00,1.320132493972778320e+00,1.319171905517578125e+00,1.318307042121887207e+00
1.305019617080688477e+00,1.305613160133361816e+00,1.306493163108825684e+00,1.307176589965820312e+00,1.308080911636352539e+00,1.309063076972961426e+00,1.310032129287719727e+00,1.310669660568237305e+00,1.311759471893310547e+00,1.312364101409912109e+00,1.313400864601135254e+00,1.313562870025634766e+00,1.314560890197753906e+00,1.315463781356811523e+00,1.316366553306579590e+00,1.316900014877319336e+00,1.317747592926025391e+00,1.318109989166259766e+00,1.319053292274475098e+00,1.319393873214721680e+00,1.320275664329528809e+00,1.320899128913879395e+00,1.321689724922180176e+00,1.322007536888122559e+00,1.322824478149414062e+00,1.323315858840942383e+00,1.324103116989135742e+00,1.324267864227294922e+00,1.325069785118103027e+00,1.325611710548400879e+00,1.326213121414184570e+00,1.326527118682861328e+00,1.327483654022216797e+00,1.327698707580566406e+00,1.328289389610290527e+00,1.328525781631469727e+00,1.329141736030578613e+00,1.329550743103027344e+00,1.329980731010437012e+00,1.330043911933898926e+00,1.330597043037414551e+00,1.330858588218688965e+00,1.331296205520629883e+00,1.331491947174072266e+00,1.331996560096740723e+00,1.332086682319641113e+00,1.332532882690429688e+00,1.332808494567871094e+00,1.332942605018615723e+00,1.333002924919128418e+00,1.333421349525451660e+00,1.333487153053283691e+00,1.333759903907775879e+00,1.333851218223571777e+00,1.334273934364318848e+00,1.334289550781250000e+00,1.334315538406372070e+00,1.334585785865783691e+00,1.334819912910461426e+00,1.334859251976013184e+00,1.335029006004333496e+00,1.335074663162231445e+00,1.335184335708618164e+00,1.335304856300354004e+00,1.335427284240722656e+00,1.335502505302429199e+00,1.335566520690917969e+00,1.335659265518188477e+00,1.335553765296936035e+00,1.335501670837402344e+00,1.335572123527526855e+00,1.335529088973999023e+00,1.335555791854858398e+00,1.335601210594177246e+00,1.335547566413879395e+00,1.335534453392028809e+00,1.335478425025939941e+00,1.335328459739685059e+00,1.335107326507568359e+00,1.335122346878051758e+00,1.334966778755187988e+00,1.334993600845336914e+00,1.334884166717529297e+00,1.334790706634521484e+00,1.334568977355957031e+00,1.334271907806396484e+00,1.334002375602722168e+00,1.333926916122436523e+00,1.333590269088745117e+00,1.333399295806884766e+00,1.333198308944702148e+00,1.333125591278076172e+00,1.332653999328613281e+00,1.332430481910705566e+00,1.332051992416381836e+00,1.331856608390808105e+00,1.331349372863769531e+00,1.331070423126220703e+00,1.330535888671875000e+00,1.330458402633666992e+00,1.329978585243225098e+00,1.329178094863891602e+00,1.328688144683837891e+00,1.328467488288879395e+00,1.327500462532043457e+00,1.326715111732482910e+00,1.325831770896911621e+00,1.325634241104125977e+00,1.324607610702514648e+00,1.323693633079528809e+00,1.322801947593688965e+00,1.322445631027221680e+00,1.321315288543701172e+00,1.320559382438659668e+00,1.319502234458923340e+00,1.319078326225280762e+00,1.317827939987182617e+00,1.316970348358154297e+00,1.315780401229858398e+00
1.302960991859436035e+00,1.303704738616943359e+00,1.304334163665771484e+00,1.305053830146789551e+00,1.306010961532592773e+00,1.307172417640686035e+00,1.308085441589355469e+00,1.308639883995056152e+00,1.309404850006103516e+00,1.310314893722534180e+00,1.311138987541198730e+00,1.311548829078674316e+00,1.312556147575378418e+00,1.313344836235046387e+00,1.314213871955871582e+00,1.314903974533081055e+00,1.315694212913513184e+00,1.316309809684753418e+00,1.317101716995239258e+00,1.317784905433654785e+00,1.318485856056213379e+00,1.319312334060668945e+00,1.319857239723205566e+00,1.320397973060607910e+00,1.320936560630798340e+00,1.321770787239074707e+00,1.322477221488952637e+00,1.322726488113403320e+00,1.323492527008056641e+00,1.324251770973205566e+00,1.324782967567443848e+00,1.325230598449707031e+00,1.325828433036804199e+00,1.326333403587341309e+00,1.326918959617614746e+00,1.327240705490112305e+00,1.327863931655883789e+00,1.328305363655090332e+00,1.328758358955383301e+00,1.328940987586975098e+00,1.329568982124328613e+00,1.329887390136718750e+00,1.330351471900939941e+00,1.330646038055419922e+00,1.330912351608276367e+00,1.331104993820190430e+00,1.331346511840820312e+00,1.331655025482177734e+00,1.332090377807617188e+00,1.332139372825622559e+00,1.332631230354309082e+00,1.332610487937927246e+00,1.332833886146545410e+00,1.333145380020141602e+00,1.333405494689941406e+00,1.333355665206909180e+00,1.333623051643371582e+00,1.333757281303405762e+00,1.333995461463928223e+00,1.334049582481384277e+00,1.334292888641357422e+00,1.334319949150085449e+00,1.334300398826599121e+00,1.334433555603027344e+00,1.334505915641784668e+00,1.334631443023681641e+00,1.334711790084838867e+00,1.334745407104492188e+00,1.334686756134033203e+00,1.334774494171142578e+00,1.334845542907714844e+00,1.334895133972167969e+00,1.334778070449829102e+00,1.334745168685913086e+00,1.334761381149291992e+00,1.334733486175537109e+00,1.334665536880493164e+00,1.334520101547241211e+00,1.334410309791564941e+00,1.334408164024353027e+00,1.334145069122314453e+00,1.334099650382995605e+00,1.333972811698913574e+00,1.333930373191833496e+00,1.333559513092041016e+00,1.333522915840148926e+00,1.333212971687316895e+00,1.333038210868835449e+00,1.332795381546020508e+00,1.332570433616638184e+00,1.332294106483459473e+00,1.332094192504882812e+00,1.331744551658630371e+00,1.331380009651184082e+00,1.330927848815917969e+00,1.330748200416564941e+00,1.330443620681762695e+00,1.329988479614257812e+00,1.329578995704650879e+00,1.329292893409729004e+00,1.328636288642883301e+00,1.328120231628417969e+00,1.327313303947448730e+00,1.327031135559082031e+00,1.325957059860229492e+00,1.325304508209228516e+00,1.324391007423400879e+00,1.324038267135620117e+00,1.323119282722473145e+00,1.322156190872192383e+00,1.321181893348693848e+00,1.320714950561523438e+00,1.319627642631530762e+00,1.318751573562622070e+00,1.317785978317260742e+00,1.317121386528015137e+00,1.315876364707946777e+00,1.314936041831970215e+00,1.313885211944580078e+00
1.301184773445129395e+00,1.301625847816467285e+00,1.302396059036254883e+00,1.302944421768188477e+00,1.303962826728820801e+00,1.304844021797180176e+00,1.305868029594421387e+00,1.306534409523010254e+00,1.307375788688659668e+00,1.308097481727600098e+00,1.309009552001953125e+00,1.309428215026855469e+00,1.310358285903930664e+00,1.311355352401733398e+00,1.312196850776672363e+00,1.312810540199279785e+00,1.313663244247436523e+00,1.314118146896362305e+00,1.315105438232421875e+00,1.315739035606384277e+00,1.316435337066650391e+00,1.317246079444885254e+00,1.317940711975097656e+00,1.318268895149230957e+00,1.319084882736206055e+00,1.319765329360961914e+00,1.320603251457214355e+00,1.321063756942749023e+00,1.321651339530944824e+00,1.322274804115295410e+00,1.323058366775512695e+00,1.323271393775939941e+00,1.324100375175476074e+00,1.324578046798706055e+00,1.325120091438293457e+00,1.325507998466491699e+00,1.326149702072143555e+00,1.326503992080688477e+00,1.327223896980285645e+00,1.327435493469238281e+00,1.328175425529479980e+00,1.328518867492675781e+00,1.328941702842712402e+00,1.329205036163330078e+00,1.329706430435180664e+00,1.330008268356323242e+00,1.330454707145690918e+00,1.330506324768066406e+00,1.330775022506713867e+00,1.331103563308715820e+00,1.331372141838073730e+00,1.331519484519958496e+00,1.331843256950378418e+00,1.332030057907104492e+00,1.332215189933776855e+00,1.332321643829345703e+00,1.332648158073425293e+00,1.332865953445434570e+00,1.332904577255249023e+00,1.333005189895629883e+00,1.333218812942504883e+00,1.333381175994873047e+00,1.333433628082275391e+00,1.333512544631958008e+00,1.333657503128051758e+00,1.333670377731323242e+00,1.333701133728027344e+00,1.333747982978820801e+00,1.333805203437805176e+00,1.333737015724182129e+00,1.333765387535095215e+00,1.333803415298461914e+00,1.333822250366210938e+00,1.333692550659179688e+00,1.333636641502380371e+00,1.333643674850463867e+00,1.333635807037353516e+00,1.333536386489868164e+00,1.333365917205810547e+00,1.333161592483520508e+00,1.332979679107666016e+00,1.333101987838745117e+00,1.332943439483642578e+00,1.332895398139953613e+00,1.332474350929260254e+00,1.332435131072998047e+00,1.332188367843627930e+00,1.331777334213256836e+00,1.331671714782714844e+00,1.331431627273559570e+00,1.331140160560607910e+00,1.330938458442687988e+00,1.330526471138000488e+00,1.330257058143615723e+00,1.329754829406738281e+00,1.329486727714538574e+00,1.329043865203857422e+00,1.328765034675598145e+00,1.328285932540893555e+00,1.328106045722961426e+00,1.327241301536560059e+00,1.326607584953308105e+00,1.325862526893615723e+00,1.325338006019592285e+00,1.324437618255615234e+00,1.323727369308471680e+00,1.322793006896972656e+00,1.322454571723937988e+00,1.321411609649658203e+00,1.320425510406494141e+00,1.319350361824035645e+00,1.318736910820007324e+00,1.317601084709167480e+00,1.316818237304687500e+00,1.315652728080749512e+00,1.314993500709533691e+00,1.313766479492187500e+00,1.312728524208068848e+00,1.311561703681945801e+00
1.299507021903991699e+00,1.299829125404357910e+00,1.300692081451416016e+00,1.301255702972412109e+00,1.302041769027709961e+00,1.303155541419982910e+00,1.303911447525024414e+00,1.304604411125183105e+00,1.305570721626281738e+00,1.306226491928100586e+00,1.307083964347839355e+00,1.307650446891784668e+00,1.308634281158447266e+00,1.309444665908813477e+00,1.310297846794128418e+00,1.311079740524291992e+00,1.311936974525451660e+00,1.312672257423400879e+00,1.313498020172119141e+00,1.314031720161437988e+00,1.314818501472473145e+00,1.315652489662170410e+00,1.316546440124511719e+00,1.316911339759826660e+00,1.317685127258300781e+00,1.318349599838256836e+00,1.319086313247680664e+00,1.319626688957214355e+00,1.320317506790161133e+00,1.321001529693603516e+00,1.321628332138061523e+00,1.322003841400146484e+00,1.322705149650573730e+00,1.323195934295654297e+00,1.323962688446044922e+00,1.324361205101013184e+00,1.324962139129638672e+00,1.325352430343627930e+00,1.325983762741088867e+00,1.326412320137023926e+00,1.326840996742248535e+00,1.327201604843139648e+00,1.327720403671264648e+00,1.328199744224548340e+00,1.328494787216186523e+00,1.328810453414916992e+00,1.329259753227233887e+00,1.329492807388305664e+00,1.329878807067871094e+00,1.330191612243652344e+00,1.330477952957153320e+00,1.330612063407897949e+00,1.330995202064514160e+00,1.331141591072082520e+00,1.331203699111938477e+00,1.331554889678955078e+00,1.331784844398498535e+00,1.331847906112670898e+00,1.332107186317443848e+00,1.332183718681335449e+00,1.332339644432067871e+00,1.332563400268554688e+00,1.332581639289855957e+00,1.332593917846679688e+00,1.332692742347717285e+00,1.332767724990844727e+00,1.332828760147094727e+00,1.332924485206604004e+00,1.333032846450805664e+00,1.333041548728942871e+00,1.333014845848083496e+00,1.333014607429504395e+00,1.333021759986877441e+00,1.333013176918029785e+00,1.332855701446533203e+00,1.332772374153137207e+00,1.332784056663513184e+00,1.332663536071777344e+00,1.332575917243957520e+00,1.332436203956604004e+00,1.332324266433715820e+00,1.332219481468200684e+00,1.332003593444824219e+00,1.331981301307678223e+00,1.331781506538391113e+00,1.331474065780639648e+00,1.331295371055603027e+00,1.331131815910339355e+00,1.330741047859191895e+00,1.330530643463134766e+00,1.330182194709777832e+00,1.330101490020751953e+00,1.329687833786010742e+00,1.329232215881347656e+00,1.328622937202453613e+00,1.328458666801452637e+00,1.327972650527954102e+00,1.327566385269165039e+00,1.327048778533935547e+00,1.326626062393188477e+00,1.326070308685302734e+00,1.325313329696655273e+00,1.324474215507507324e+00,1.323986530303955078e+00,1.323171615600585938e+00,1.322505354881286621e+00,1.321494221687316895e+00,1.320987224578857422e+00,1.319918155670166016e+00,1.318843960762023926e+00,1.317735552787780762e+00,1.317127227783203125e+00,1.316048622131347656e+00,1.315189003944396973e+00,1.313971757888793945e+00,1.313085436820983887e+00,1.311841964721679688e+00,1.310820341110229492e+00,1.309659838676452637e+00
1.297843217849731445e+00,1.298364996910095215e+00,1.299034476280212402e+00,1.299704432487487793e+00,1.300289511680603027e+00,1.301281929016113281e+00,1.302215337753295898e+00,1.302933335304260254e+00,1.303562164306640625e+00,1.304438114166259766e+00,1.305284619331359863e+00,1.305843234062194824e+00,1.306851863861083984e+00,1.307675957679748535e+00,1.308626055717468262e+00,1.309198975563049316e+00,1.310163140296936035e+00,1.310684204101562500e+00,1.311718106269836426e+00,1.312031269073486328e+00,1.313097357749938965e+00,1.313797593116760254e+00,1.314535617828369141e+00,1.315087556838989258e+00,1.315896511077880859e+00,1.316440105438232422e+00,1.317409396171569824e+00,1.317838788032531738e+00,1.318757414817810059e+00,1.319335937500000000e+00,1.319966316223144531e+00,1.320454120635986328e+00,1.321138262748718262e+00,1.321601152420043945e+00,1.322192430496215820e+00,1.322715282440185547e+00,1.323350191116333008e+00,1.323792457580566406e+00,1.324409484863281250e+00,1.324831366539001465e+00,1.325414776802062988e+00,1.325738906860351562e+00,1.326332330703735352e+00,1.326508760452270508e+00,1.327080845832824707e+00,1.327309489250183105e+00,1.327673435211181641e+00,1.328105568885803223e+00,1.328447341918945312e+00,1.328783392906188965e+00,1.329360723495483398e+00,1.329398632049560547e+00,1.329652667045593262e+00,1.330007553100585938e+00,1.330085873603820801e+00,1.330353856086730957e+00,1.330668449401855469e+00,1.330743551254272461e+00,1.330978274345397949e+00,1.331049323081970215e+00,1.331170678138732910e+00,1.331340909004211426e+00,1.331582784652709961e+00,1.331478238105773926e+00,1.331675887107849121e+00,1.331717491149902344e+00,1.331789970397949219e+00,1.331838965415954590e+00,1.331943511962890625e+00,1.331988811492919922e+00,1.331971764564514160e+00,1.331990242004394531e+00,1.331947445869445801e+00,1.331922292709350586e+00,1.331741094589233398e+00,1.331688523292541504e+00,1.331732630729675293e+00,1.331544995307922363e+00,1.331383228302001953e+00,1.331260204315185547e+00,1.331275463104248047e+00,1.331133842468261719e+00,1.330928921699523926e+00,1.330766320228576660e+00,1.330659747123718262e+00,1.330353736877441406e+00,1.330040335655212402e+00,1.330042362213134766e+00,1.329552650451660156e+00,1.329276800155639648e+00,1.328964829444885254e+00,1.328821301460266113e+00,1.328303575515747070e+00,1.327905893325805664e+00,1.327274560928344727e+00,1.326982617378234863e+00,1.326408147811889648e+00,1.325971007347106934e+00,1.325489759445190430e+00,1.325206518173217773e+00,1.324365496635437012e+00,1.323829770088195801e+00,1.322884678840637207e+00,1.322612166404724121e+00,1.321528911590576172e+00,1.320916891098022461e+00,1.319779038429260254e+00,1.319282293319702148e+00,1.318128228187561035e+00,1.317169427871704102e+00,1.316097140312194824e+00,1.315479278564453125e+00,1.314048171043395996e+00,1.313248157501220703e+00,1.311868548393249512e+00,1.311249256134033203e+00,1.309963345527648926e+00,1.308838248252868652e+00,1.307515978813171387e+00
1.296538949012756348e+00,1.297044873237609863e+00,1.297535181045532227e+00,1.298160910606384277e+00,1.298813104629516602e+00,1.299707174301147461e+00,1.300380706787109375e+00,1.301072597503662109e+00,1.302017807960510254e+00,1.302701473236083984e+00,1.303515076637268066e+00,1.304096460342407227e+00,1.304975628852844238e+00,1.305948495864868164e+00,1.306937336921691895e+00,1.307463288307189941e+00,1.308427810668945312e+00,1.309127926826477051e+00,1.310000181198120117e+00,1.310680031776428223e+00,1.311480045318603516e+00,1.312298655509948730e+00,1.313097119331359863e+00,1.313438534736633301e+00,1.314393281936645508e+00,1.314989447593688965e+00,1.315841197967529297e+00,1.316459655761718750e+00,1.317216873168945312e+00,1.317888498306274414e+00,1.318667888641357422e+00,1.319149494171142578e+00,1.319806337356567383e+00,1.320427656173706055e+00,1.320967793464660645e+00,1.321466565132141113e+00,1.322151660919189453e+00,1.322811484336853027e+00,1.323324203491210938e+00,1.323556423187255859e+00,1.324204921722412109e+00,1.324443459510803223e+00,1.325130820274353027e+00,1.325459837913513184e+00,1.326031923294067383e+00,1.326503634452819824e+00,1.326856017112731934e+00,1.327053427696228027e+00,1.327482342720031738e+00,1.327790856361389160e+00,1.328142404556274414e+00,1.328529238700866699e+00,1.328646302223205566e+00,1.328919887542724609e+00,1.329258561134338379e+00,1.329441428184509277e+00,1.329578042030334473e+00,1.329669833183288574e+00,1.330126285552978516e+00,1.330241560935974121e+00,1.330446720123291016e+00,1.330528855323791504e+00,1.330789566040039062e+00,1.330625653266906738e+00,1.330813527107238770e+00,1.330826759338378906e+00,1.330969810485839844e+00,1.331089258193969727e+00,1.331121325492858887e+00,1.331139683723449707e+00,1.331062197685241699e+00,1.331025123596191406e+00,1.330997228622436523e+00,1.331027388572692871e+00,1.331037878990173340e+00,1.330994009971618652e+00,1.330923676490783691e+00,1.330757856369018555e+00,1.330616831779479980e+00,1.330603599548339844e+00,1.330435752868652344e+00,1.330149054527282715e+00,1.330171942710876465e+00,1.329998970031738281e+00,1.329813957214355469e+00,1.329563140869140625e+00,1.329102873802185059e+00,1.328963518142700195e+00,1.328614950180053711e+00,1.328349351882934570e+00,1.327966332435607910e+00,1.327728152275085449e+00,1.327268600463867188e+00,1.326741814613342285e+00,1.326308608055114746e+00,1.325880289077758789e+00,1.325430154800415039e+00,1.324991822242736816e+00,1.324343085289001465e+00,1.324099540710449219e+00,1.323372602462768555e+00,1.322588324546813965e+00,1.321776509284973145e+00,1.321215867996215820e+00,1.320252180099487305e+00,1.319509744644165039e+00,1.318497896194458008e+00,1.317767739295959473e+00,1.316500544548034668e+00,1.315675377845764160e+00,1.314566731452941895e+00,1.313724994659423828e+00,1.312398314476013184e+00,1.311468005180358887e+00,1.310188293457031250e+00,1.309407472610473633e+00,1.308082342147827148e+00,1.306985259056091309e+00,1.305592536926269531e+00
1.295227408409118652e+00,1.295590758323669434e+00,1.296376705169677734e+00,1.296784877777099609e+00,1.297376275062561035e+00,1.298358798027038574e+00,1.298986792564392090e+00,1.299562692642211914e+00,1.300321459770202637e+00,1.301244139671325684e+00,1.301909089088439941e+00,1.302531599998474121e+00,1.303416967391967773e+00,1.304358959197998047e+00,1.305370330810546875e+00,1.305945396423339844e+00,1.306767344474792480e+00,1.307509303092956543e+00,1.308394908905029297e+00,1.309000253677368164e+00,1.309800624847412109e+00,1.310548901557922363e+00,1.311483740806579590e+00,1.312088251113891602e+00,1.312804460525512695e+00,1.313546776771545410e+00,1.314375638961791992e+00,1.314909815788269043e+00,1.315686464309692383e+00,1.316507816314697266e+00,1.317309617996215820e+00,1.317734837532043457e+00,1.318327426910400391e+00,1.319038510322570801e+00,1.319717049598693848e+00,1.320150375366210938e+00,1.320820927619934082e+00,1.321282267570495605e+00,1.322013854980468750e+00,1.322234153747558594e+00,1.322875857353210449e+00,1.323361396789550781e+00,1.323954343795776367e+00,1.324270963668823242e+00,1.324729204177856445e+00,1.325120568275451660e+00,1.325587630271911621e+00,1.325767755508422852e+00,1.326303720474243164e+00,1.326544642448425293e+00,1.327104330062866211e+00,1.327275395393371582e+00,1.327690958976745605e+00,1.327914834022521973e+00,1.328166246414184570e+00,1.328259825706481934e+00,1.328683018684387207e+00,1.328971982002258301e+00,1.329231023788452148e+00,1.329251050949096680e+00,1.329466223716735840e+00,1.329621195793151855e+00,1.329630255699157715e+00,1.329875349998474121e+00,1.329995512962341309e+00,1.330137133598327637e+00,1.330148816108703613e+00,1.330295920372009277e+00,1.330264687538146973e+00,1.330300211906433105e+00,1.330348491668701172e+00,1.330264449119567871e+00,1.330298662185668945e+00,1.330290913581848145e+00,1.330148458480834961e+00,1.330158352851867676e+00,1.329975843429565430e+00,1.329907774925231934e+00,1.329696893692016602e+00,1.329696655273437500e+00,1.329472541809082031e+00,1.329400420188903809e+00,1.329155206680297852e+00,1.329161047935485840e+00,1.328767657279968262e+00,1.328461170196533203e+00,1.328236460685729980e+00,1.327904224395751953e+00,1.327558159828186035e+00,1.327262401580810547e+00,1.326760172843933105e+00,1.326672911643981934e+00,1.326211810111999512e+00,1.325728535652160645e+00,1.325011134147644043e+00,1.324842929840087891e+00,1.324303865432739258e+00,1.323685646057128906e+00,1.323158264160156250e+00,1.322873711585998535e+00,1.322188615798950195e+00,1.321345448493957520e+00,1.320503473281860352e+00,1.319959521293640137e+00,1.318868994712829590e+00,1.318116307258605957e+00,1.316999673843383789e+00,1.316438436508178711e+00,1.315176367759704590e+00,1.314125657081604004e+00,1.312908530235290527e+00,1.312171936035156250e+00,1.310820341110229492e+00,1.309842824935913086e+00,1.308600425720214844e+00,1.307738304138183594e+00,1.306284904479980469e+00,1.305085539817810059e+00,1.303705096244812012e+00
1.294102072715759277e+00,1.294466018676757812e+00,1.295157670974731445e+00,1.295596718788146973e+00,1.296257615089416504e+00,1.297036051750183105e+00,1.297912240028381348e+00,1.298291325569152832e+00,1.299231171607971191e+00,1.299870967864990234e+00,1.300660371780395508e+00,1.301291346549987793e+00,1.302147030830383301e+00,1.303051233291625977e+00,1.304000020027160645e+00,1.304647684097290039e+00,1.305525898933410645e+00,1.306300640106201172e+00,1.306991338729858398e+00,1.307797312736511230e+00,1.308691143989562988e+00,1.309496283531188965e+00,1.310253500938415527e+00,1.310806274414062500e+00,1.311682462692260742e+00,1.312330007553100586e+00,1.313305854797363281e+00,1.313773512840270996e+00,1.314499974250793457e+00,1.315369606018066406e+00,1.316304683685302734e+00,1.316720366477966309e+00,1.317360162734985352e+00,1.318017244338989258e+00,1.318680405616760254e+00,1.319144725799560547e+00,1.319947123527526855e+00,1.320422768592834473e+00,1.320927023887634277e+00,1.321494221687316895e+00,1.322071671485900879e+00,1.322466969490051270e+00,1.323167085647583008e+00,1.323409557342529297e+00,1.324121356010437012e+00,1.324440836906433105e+00,1.324786305427551270e+00,1.325106501579284668e+00,1.325658679008483887e+00,1.325891137123107910e+00,1.326375246047973633e+00,1.326569199562072754e+00,1.326909184455871582e+00,1.327344179153442383e+00,1.327665090560913086e+00,1.327564358711242676e+00,1.327969551086425781e+00,1.328259706497192383e+00,1.328445315361022949e+00,1.328506112098693848e+00,1.328798055648803711e+00,1.328965187072753906e+00,1.328938722610473633e+00,1.329113483428955078e+00,1.329134583473205566e+00,1.329291343688964844e+00,1.329472780227661133e+00,1.329478740692138672e+00,1.329635858535766602e+00,1.329569578170776367e+00,1.329570174217224121e+00,1.329527258872985840e+00,1.329594373703002930e+00,1.329557299613952637e+00,1.329469919204711914e+00,1.329480528831481934e+00,1.329388499259948730e+00,1.329159617424011230e+00,1.329120993614196777e+00,1.329023122787475586e+00,1.328835129737854004e+00,1.328655481338500977e+00,1.328585267066955566e+00,1.328545689582824707e+00,1.328147053718566895e+00,1.327784061431884766e+00,1.327490925788879395e+00,1.327312111854553223e+00,1.326687335968017578e+00,1.326536774635314941e+00,1.326082587242126465e+00,1.325893759727478027e+00,1.325372934341430664e+00,1.325031042098999023e+00,1.324486374855041504e+00,1.324166893959045410e+00,1.323603272438049316e+00,1.323125600814819336e+00,1.322353959083557129e+00,1.322078227996826172e+00,1.321329116821289062e+00,1.320400953292846680e+00,1.319713950157165527e+00,1.319066405296325684e+00,1.317877769470214844e+00,1.317035555839538574e+00,1.316046237945556641e+00,1.315228819847106934e+00,1.314026474952697754e+00,1.312937974929809570e+00,1.311834812164306641e+00,1.310785174369812012e+00,1.309361934661865234e+00,1.308416724205017090e+00,1.307175874710083008e+00,1.306156873703002930e+00,1.304781913757324219e+00,1.303726315498352051e+00,1.302428603172302246e+00
